ncols        383
nrows        49
xllcorner    7.92374999996
yllcorner    46.39125
cellsize     0.000833333333
NODATA_value 0
2890 2859 2824 2789 2769 2745 2726 2709 2698 2690 2683 2670 2668 2665 2660 2659 2658 2663 2660 2657 2655 2652 2646 2644 2655 2681 2724 2754 2801 2841 2867 2884 2906 2935 2981 3044 3081 3105 3128 3070 2964 2883 2863 2830 2801 2787 2767 2734 2675 2623 2576 2537 2513 2512 2515 2515 2515 2513 2519 2524 2531 2538 2542 2545 2548 2557 2573 2598 2631 2679 2714 2740 2778 2816 2852 2891 2930 2962 2992 3015 3038 3060 3082 3102 3131 3184 3249 3325 3390 3459 3511 3493 3458 3435 3414 3394 3376 3353 3323 3305 3302 3298 3291 3279 3270 3265 3257 3254 3243 3227 3210 3194 3188 3201 3188 3119 3090 3071 3052 3036 3007 2972 2929 2903 2895 2899 2915 2931 2944 2955 2959 2959 2958 2956 2970 2984 2933 2898 2868 2830 2785 2755 2738 2725 2685 2648 2589 2542 2475 2407 2354 2294 2249 2215 2184 2158 2144 2143 2155 2162 2167 2175 2179 2181 2185 2188 2189 2190 2194 2198 2202 2206 2210 2214 2217 2221 2221 2219 2220 2221 2223 2224 2225 2223 2224 2225 2223 2220 2219 2239 2271 2299 2342 2391 2438 2487 2544 2579 2623 2686 2738 2790 2843 2880 2872 2849 2823 2791 2744 2697 2661 2636 2613 2597 2578 2562 2531 2503 2479 2458 2440 2426 2403 2376 2354 2342 2330 2311 2286 2272 2287 2299 2284 2247 2211 2164 2128 2077 2026 1975 1929 1881 1824 1771 1717 1667 1628 1585 1537 1485 1437 1393 1350 1310 1270 1236 1211 1204 1219 1243 1272 1285 1295 1315 1347 1382 1415 1431 1444 1457 1471 1485 1497 1511 1532 1542 1558 1577 1591 1605 1620 1634 1649 1665 1686 1703 1713 1720 1725 1727 1724 1716 1709 1700 1693 1678 1663 1642 1617 1602 1587 1567 1547 1520 1481 1448 1412 1368 1329 1292 1270 1253 1234 1220 1221 1228 1232 1230 1245 1265 1270 1280 1296 1319 1338 1356 1369 1388 1418 1439 1463 1494 1524 1547 1575 1570 1544 1506 1475 1504 1567 1628 1685 1731 1771 1816 1860 1894 1915 1941 1974 2006 2031 2048 2057 2053 2040 2025 2020 2010 1998 2017 2050 2092 2142 2194 2242 2276 2317 2349 2374 2388 2383 2359 2323 2280 2254 2242 2237 2240 2246 2255 2260
2865 2817 2765 2733 2715 2711 2701 2701 2692 2691 2682 2680 2677 2677 2671 2666 2661 2656 2656 2655 2652 2652 2640 2637 2645 2662 2676 2707 2743 2787 2819 2848 2879 2911 2981 3033 3045 3046 3055 3013 2919 2857 2830 2802 2773 2755 2737 2691 2615 2557 2519 2505 2501 2502 2501 2503 2502 2506 2516 2523 2527 2532 2537 2538 2545 2559 2578 2604 2639 2668 2703 2740 2777 2820 2856 2902 2934 2961 2989 3016 3050 3073 3109 3202 3275 3313 3377 3439 3456 3482 3491 3469 3443 3422 3401 3384 3367 3338 3304 3285 3285 3279 3271 3258 3249 3247 3243 3237 3223 3205 3185 3168 3154 3152 3153 3110 3056 3035 3014 2991 2963 2937 2907 2884 2866 2866 2874 2886 2903 2912 2921 2925 2922 2920 2927 2944 2918 2871 2825 2787 2746 2714 2693 2673 2652 2598 2542 2481 2404 2342 2301 2263 2226 2186 2161 2141 2133 2141 2150 2157 2160 2166 2170 2173 2179 2181 2181 2185 2191 2192 2196 2200 2205 2208 2212 2215 2214 2211 2213 2218 2216 2217 2218 2219 2220 2217 2215 2219 2239 2272 2306 2339 2377 2410 2463 2509 2549 2593 2640 2697 2753 2799 2830 2852 2876 2857 2819 2765 2721 2678 2639 2618 2599 2580 2554 2538 2517 2490 2469 2459 2438 2415 2390 2365 2346 2330 2318 2305 2309 2318 2321 2301 2259 2219 2179 2139 2090 2041 1988 1934 1885 1840 1796 1752 1721 1676 1638 1593 1553 1491 1443 1389 1345 1311 1267 1244 1215 1195 1208 1236 1257 1266 1267 1277 1302 1343 1380 1402 1417 1429 1442 1455 1466 1485 1500 1511 1533 1549 1565 1575 1588 1604 1619 1640 1659 1671 1678 1682 1683 1685 1682 1680 1676 1664 1657 1649 1638 1622 1593 1572 1543 1522 1503 1462 1435 1396 1360 1317 1281 1254 1235 1225 1219 1224 1229 1240 1257 1270 1273 1287 1313 1334 1343 1358 1379 1396 1414 1440 1462 1483 1506 1537 1569 1595 1620 1625 1608 1577 1544 1515 1537 1593 1659 1713 1762 1813 1854 1885 1922 1961 1994 2026 2047 2067 2080 2076 2066 2061 2063 2063 2054 2055 2079 2120 2169 2221 2271 2310 2342 2371 2398 2411 2411 2382 2345 2312 2281 2260 2252 2242 2242 2255 2271
2824 2755 2724 2715 2708 2711 2707 2696 2704 2706 2693 2683 2680 2677 2671 2667 2664 2658 2654 2649 2645 2646 2640 2638 2636 2645 2649 2660 2696 2733 2769 2803 2847 2905 2968 2981 2984 2986 2988 2964 2905 2839 2802 2765 2731 2709 2658 2585 2527 2502 2491 2490 2492 2492 2490 2491 2499 2511 2517 2519 2524 2531 2534 2542 2555 2576 2599 2623 2644 2677 2712 2750 2781 2831 2867 2910 2936 2958 2998 3049 3144 3203 3278 3317 3369 3411 3458 3489 3483 3465 3429 3416 3408 3397 3386 3370 3349 3318 3281 3269 3264 3259 3250 3237 3230 3228 3225 3213 3198 3181 3161 3141 3128 3119 3115 3107 3062 3026 2988 2956 2927 2914 2899 2886 2868 2852 2840 2848 2861 2869 2875 2882 2880 2878 2887 2897 2906 2867 2786 2758 2723 2679 2647 2620 2596 2542 2491 2428 2346 2290 2262 2229 2191 2158 2140 2126 2128 2139 2147 2150 2153 2156 2161 2165 2170 2169 2171 2171 2177 2185 2187 2191 2197 2200 2202 2204 2202 2200 2203 2208 2206 2209 2208 2207 2208 2217 2239 2260 2287 2311 2340 2373 2403 2435 2482 2517 2553 2592 2636 2683 2729 2762 2786 2813 2840 2816 2757 2722 2700 2679 2647 2617 2600 2590 2574 2545 2528 2504 2473 2456 2434 2408 2381 2365 2354 2351 2352 2348 2352 2327 2306 2277 2236 2194 2159 2116 2074 2038 1998 1951 1911 1865 1834 1802 1762 1717 1677 1622 1572 1518 1468 1404 1347 1307 1261 1231 1202 1183 1199 1222 1240 1249 1248 1253 1269 1300 1337 1367 1389 1399 1408 1422 1438 1455 1470 1482 1504 1520 1536 1549 1565 1585 1600 1618 1635 1644 1648 1654 1658 1658 1657 1655 1651 1644 1637 1635 1628 1606 1575 1531 1484 1463 1437 1415 1388 1347 1309 1266 1239 1215 1214 1221 1226 1235 1256 1267 1280 1293 1311 1313 1324 1361 1385 1396 1422 1447 1466 1486 1511 1532 1555 1584 1614 1638 1667 1683 1675 1659 1628 1599 1572 1572 1624 1681 1730 1773 1817 1853 1896 1942 1989 2032 2066 2090 2113 2125 2111 2107 2112 2114 2102 2105 2129 2159 2194 2234 2278 2316 2352 2385 2414 2433 2440 2419 2375 2336 2303 2269 2255 2249 2251 2264 2288
2760 2730 2715 2715 2712 2704 2703 2693 2695 2694 2689 2683 2680 2675 2668 2668 2660 2653 2653 2651 2647 2640 2635 2631 2627 2629 2634 2634 2649 2693 2722 2773 2813 2875 2913 2922 2924 2940 2960 2957 2931 2885 2810 2739 2685 2633 2589 2521 2496 2482 2481 2485 2485 2481 2479 2491 2506 2509 2511 2518 2519 2526 2536 2551 2580 2612 2634 2661 2684 2714 2741 2769 2809 2851 2888 2917 2941 3043 3104 3177 3239 3278 3310 3314 3329 3360 3383 3426 3459 3435 3403 3377 3366 3362 3357 3346 3328 3290 3262 3252 3244 3237 3227 3215 3208 3203 3196 3179 3169 3155 3138 3122 3109 3099 3088 3080 3067 3022 2970 2935 2903 2889 2885 2877 2861 2845 2830 2819 2821 2831 2832 2830 2832 2838 2850 2858 2871 2878 2818 2740 2691 2658 2603 2561 2531 2492 2449 2381 2291 2253 2222 2191 2162 2142 2126 2118 2125 2134 2140 2147 2147 2147 2152 2157 2156 2154 2159 2161 2167 2176 2183 2184 2188 2190 2193 2195 2196 2195 2196 2198 2198 2199 2200 2201 2218 2252 2279 2301 2330 2345 2363 2391 2424 2466 2502 2534 2565 2602 2635 2672 2700 2735 2774 2816 2834 2787 2729 2710 2701 2678 2648 2622 2602 2595 2581 2555 2527 2500 2465 2442 2429 2426 2422 2412 2384 2372 2364 2354 2340 2313 2286 2254 2220 2181 2150 2118 2079 2043 2002 1953 1913 1873 1837 1793 1751 1710 1670 1622 1567 1516 1455 1395 1344 1296 1261 1224 1194 1172 1175 1198 1217 1223 1228 1235 1248 1273 1299 1318 1342 1362 1383 1395 1410 1431 1442 1457 1478 1497 1511 1528 1543 1563 1583 1604 1616 1625 1632 1639 1641 1644 1646 1642 1637 1631 1630 1616 1594 1572 1534 1482 1440 1409 1386 1368 1336 1301 1262 1232 1215 1216 1225 1232 1245 1258 1270 1287 1308 1332 1346 1359 1360 1372 1396 1422 1456 1482 1510 1530 1550 1573 1597 1629 1652 1684 1717 1733 1726 1710 1703 1688 1674 1647 1628 1663 1722 1768 1809 1850 1889 1933 1979 2028 2076 2113 2150 2164 2153 2150 2151 2155 2153 2160 2172 2196 2223 2247 2280 2314 2346 2378 2412 2446 2468 2465 2430 2394 2350 2318 2294 2279 2279 2300 2328
2734 2722 2713 2717 2720 2713 2707 2700 2693 2697 2691 2682 2678 2677 2671 2665 2658 2655 2652 2647 2638 2633 2631 2628 2622 2619 2620 2618 2622 2638 2667 2714 2759 2814 2842 2861 2876 2894 2942 2961 2935 2904 2802 2738 2689 2595 2517 2497 2481 2477 2478 2476 2475 2475 2482 2496 2503 2508 2513 2516 2520 2531 2559 2603 2638 2673 2697 2714 2735 2756 2780 2803 2847 2883 2938 2976 3045 3165 3191 3206 3218 3235 3239 3240 3259 3309 3327 3362 3426 3437 3417 3366 3335 3320 3317 3313 3294 3253 3233 3224 3219 3211 3205 3198 3186 3178 3167 3151 3136 3123 3108 3089 3077 3062 3047 3040 3041 3027 2957 2918 2893 2869 2857 2849 2843 2834 2826 2803 2786 2791 2799 2790 2784 2793 2809 2816 2823 2842 2823 2758 2700 2646 2579 2523 2487 2434 2395 2334 2269 2226 2192 2167 2147 2130 2113 2116 2126 2132 2136 2140 2143 2145 2148 2149 2147 2146 2149 2152 2158 2165 2170 2177 2180 2183 2185 2185 2187 2188 2188 2190 2188 2189 2201 2223 2253 2284 2308 2338 2360 2373 2389 2418 2460 2486 2516 2540 2567 2600 2633 2672 2714 2756 2810 2847 2844 2804 2748 2727 2696 2667 2635 2614 2598 2584 2564 2542 2520 2497 2476 2462 2454 2444 2428 2407 2377 2349 2330 2315 2302 2287 2265 2234 2204 2169 2131 2091 2047 2010 1966 1925 1882 1841 1804 1767 1724 1689 1648 1616 1577 1531 1472 1429 1360 1313 1267 1228 1201 1169 1158 1175 1188 1189 1195 1201 1217 1237 1253 1267 1296 1327 1357 1378 1385 1400 1416 1433 1451 1466 1484 1505 1527 1548 1572 1595 1610 1620 1627 1635 1640 1644 1642 1634 1625 1615 1595 1577 1551 1522 1490 1439 1397 1363 1340 1318 1285 1257 1236 1208 1210 1221 1240 1261 1287 1311 1319 1318 1324 1349 1380 1401 1419 1423 1420 1413 1433 1480 1540 1565 1586 1611 1643 1677 1702 1727 1750 1767 1777 1774 1774 1773 1762 1740 1709 1692 1732 1784 1828 1872 1922 1956 1989 2038 2082 2119 2162 2179 2173 2166 2169 2178 2192 2202 2208 2218 2232 2250 2275 2302 2331 2363 2407 2441 2471 2487 2472 2440 2389 2368 2354 2349 2356 2356 2365
2738 2733 2729 2727 2728 2719 2712 2707 2702 2705 2693 2685 2681 2675 2669 2662 2650 2645 2647 2639 2632 2630 2624 2620 2618 2613 2607 2603 2606 2612 2627 2661 2714 2758 2776 2807 2831 2871 2893 2882 2862 2837 2750 2687 2635 2558 2497 2473 2466 2472 2468 2467 2467 2477 2491 2495 2500 2505 2511 2520 2552 2616 2658 2680 2711 2741 2768 2770 2799 2812 2833 2870 2933 2997 3062 3103 3158 3188 3168 3149 3149 3161 3174 3186 3206 3250 3264 3300 3381 3425 3421 3365 3318 3294 3283 3276 3261 3235 3201 3188 3182 3179 3170 3164 3154 3142 3128 3110 3089 3075 3060 3047 3035 3024 3016 3005 3000 3003 2958 2909 2880 2855 2830 2818 2812 2806 2798 2782 2762 2760 2772 2766 2755 2756 2761 2770 2783 2804 2820 2781 2711 2644 2545 2492 2450 2393 2349 2293 2251 2208 2182 2153 2133 2113 2109 2117 2124 2130 2133 2133 2137 2141 2142 2142 2139 2140 2144 2148 2155 2159 2163 2169 2173 2174 2176 2180 2181 2179 2178 2179 2183 2201 2228 2261 2291 2321 2348 2371 2390 2409 2430 2450 2482 2511 2531 2551 2573 2601 2639 2683 2738 2793 2838 2863 2847 2798 2745 2698 2664 2637 2607 2591 2576 2569 2552 2533 2519 2509 2494 2473 2452 2435 2413 2390 2356 2319 2296 2277 2271 2265 2249 2217 2181 2142 2112 2075 2039 1999 1959 1927 1904 1870 1830 1779 1740 1710 1667 1631 1598 1558 1507 1460 1379 1329 1290 1242 1205 1174 1151 1160 1164 1163 1162 1170 1188 1194 1201 1224 1254 1286 1323 1354 1374 1382 1391 1406 1426 1446 1463 1488 1516 1543 1571 1591 1604 1619 1636 1642 1641 1639 1632 1621 1607 1585 1554 1540 1511 1478 1435 1400 1362 1321 1291 1265 1244 1228 1211 1198 1210 1238 1279 1311 1338 1353 1362 1359 1365 1391 1422 1449 1471 1491 1505 1493 1465 1467 1531 1582 1620 1651 1682 1710 1736 1763 1783 1793 1814 1825 1831 1830 1833 1822 1791 1764 1755 1779 1831 1884 1935 1977 2021 2072 2111 2145 2175 2197 2201 2190 2191 2201 2209 2221 2228 2230 2237 2254 2275 2296 2319 2348 2390 2427 2457 2480 2482 2451 2407 2390 2375 2368 2379 2388 2397
2748 2741 2733 2726 2724 2720 2714 2709 2706 2702 2696 2691 2683 2677 2670 2663 2651 2646 2641 2634 2629 2625 2619 2618 2615 2611 2608 2598 2594 2593 2597 2618 2657 2702 2729 2761 2793 2807 2814 2796 2758 2735 2664 2578 2532 2496 2476 2462 2459 2466 2461 2461 2464 2479 2485 2482 2490 2496 2519 2581 2648 2676 2709 2747 2792 2834 2862 2882 2874 2901 2935 2996 3042 3069 3091 3106 3104 3096 3081 3083 3087 3100 3110 3135 3166 3199 3214 3274 3335 3388 3388 3335 3293 3267 3250 3241 3229 3211 3164 3149 3144 3140 3138 3130 3114 3100 3088 3070 3051 3035 3014 3000 2997 2989 2980 2962 2950 2971 2984 2913 2866 2843 2822 2800 2787 2777 2770 2756 2739 2730 2736 2735 2723 2721 2719 2724 2739 2759 2795 2780 2718 2649 2535 2485 2431 2367 2317 2276 2247 2204 2181 2148 2123 2108 2112 2117 2121 2127 2127 2131 2134 2136 2138 2137 2136 2137 2141 2147 2154 2154 2154 2159 2164 2167 2170 2170 2169 2169 2169 2183 2206 2234 2263 2287 2312 2346 2378 2415 2440 2458 2468 2485 2503 2519 2537 2558 2583 2614 2651 2686 2745 2807 2855 2858 2818 2790 2716 2657 2636 2609 2581 2566 2557 2549 2535 2522 2510 2498 2475 2451 2423 2401 2376 2353 2325 2294 2266 2243 2235 2227 2216 2190 2151 2113 2087 2058 2037 2006 1966 1926 1897 1870 1835 1801 1773 1736 1694 1667 1625 1584 1519 1464 1414 1364 1311 1272 1224 1186 1150 1140 1137 1136 1135 1144 1158 1162 1166 1188 1218 1248 1281 1323 1360 1371 1370 1387 1404 1436 1464 1493 1521 1547 1573 1588 1600 1615 1626 1629 1629 1627 1617 1603 1574 1540 1514 1496 1468 1431 1394 1362 1318 1276 1251 1231 1213 1201 1197 1200 1221 1261 1293 1319 1336 1348 1362 1376 1397 1427 1458 1492 1517 1544 1568 1583 1544 1514 1499 1545 1599 1642 1693 1735 1761 1780 1807 1825 1840 1860 1878 1886 1887 1878 1860 1837 1811 1804 1845 1893 1938 1990 2043 2091 2136 2171 2209 2229 2234 2226 2219 2223 2228 2238 2242 2244 2249 2265 2289 2317 2341 2359 2378 2406 2437 2468 2485 2471 2435 2413 2403 2404 2407 2417 2428
2746 2738 2736 2730 2726 2716 2708 2702 2701 2702 2699 2691 2685 2682 2668 2663 2657 2647 2635 2623 2617 2616 2611 2609 2608 2603 2599 2591 2588 2587 2583 2588 2607 2643 2677 2717 2737 2736 2721 2692 2666 2618 2531 2496 2482 2472 2468 2461 2453 2454 2453 2454 2464 2476 2474 2470 2474 2494 2570 2644 2672 2695 2740 2781 2816 2833 2874 2910 2916 2931 2952 2968 2988 2989 2984 2971 2969 2974 2987 3009 3025 3043 3062 3094 3125 3149 3194 3239 3268 3319 3322 3300 3266 3243 3225 3203 3188 3163 3114 3100 3092 3088 3087 3079 3071 3060 3051 3036 3019 2997 2976 2962 2954 2943 2925 2911 2908 2909 2934 2917 2868 2829 2804 2782 2764 2750 2737 2716 2695 2685 2688 2689 2685 2683 2682 2686 2700 2721 2759 2754 2719 2657 2554 2483 2416 2364 2343 2308 2257 2209 2172 2143 2120 2111 2114 2115 2120 2121 2123 2128 2129 2131 2131 2131 2131 2135 2141 2142 2147 2149 2152 2152 2153 2155 2155 2154 2153 2158 2177 2204 2234 2264 2284 2301 2325 2361 2414 2449 2469 2487 2504 2517 2529 2540 2556 2581 2606 2635 2662 2707 2768 2820 2835 2816 2773 2741 2692 2647 2621 2592 2560 2542 2532 2513 2497 2480 2465 2448 2432 2407 2383 2356 2333 2308 2286 2260 2233 2209 2191 2179 2171 2155 2127 2091 2059 2029 2002 1966 1935 1902 1878 1855 1831 1807 1781 1748 1723 1677 1630 1584 1531 1476 1443 1407 1356 1298 1248 1196 1156 1133 1125 1122 1121 1130 1140 1140 1140 1157 1179 1212 1250 1290 1331 1363 1366 1377 1415 1446 1469 1494 1522 1550 1565 1581 1592 1602 1610 1614 1610 1603 1585 1558 1524 1495 1471 1453 1425 1385 1353 1315 1271 1242 1225 1207 1199 1201 1212 1230 1240 1261 1285 1305 1327 1355 1381 1402 1429 1457 1491 1528 1556 1586 1607 1623 1614 1589 1543 1522 1558 1623 1682 1734 1776 1805 1830 1850 1873 1897 1918 1935 1942 1940 1915 1889 1872 1863 1866 1902 1945 1991 2035 2082 2129 2171 2209 2239 2257 2260 2242 2228 2233 2242 2254 2263 2268 2277 2303 2327 2355 2370 2378 2393 2417 2445 2473 2479 2460 2445 2439 2439 2436 2439 2445
2749 2750 2745 2731 2722 2718 2712 2707 2711 2708 2710 2704 2691 2688 2676 2663 2651 2639 2625 2618 2615 2611 2605 2596 2595 2595 2592 2586 2583 2579 2574 2573 2578 2590 2605 2657 2677 2657 2626 2578 2534 2505 2481 2470 2463 2461 2459 2458 2459 2455 2448 2449 2454 2461 2459 2465 2472 2493 2574 2623 2643 2661 2690 2734 2748 2762 2791 2824 2849 2862 2875 2895 2903 2907 2900 2887 2897 2907 2927 2949 2963 2982 3016 3035 3065 3105 3152 3190 3206 3240 3244 3265 3249 3208 3189 3170 3147 3121 3081 3058 3044 3038 3037 3033 3017 3007 2998 2991 2978 2962 2949 2932 2918 2906 2886 2867 2851 2848 2864 2880 2871 2816 2779 2761 2744 2727 2706 2675 2653 2642 2642 2645 2641 2643 2640 2648 2656 2680 2712 2718 2684 2620 2543 2461 2385 2365 2355 2333 2281 2256 2189 2150 2118 2111 2113 2116 2116 2117 2121 2123 2125 2126 2127 2129 2129 2133 2137 2139 2140 2142 2143 2144 2143 2143 2142 2138 2143 2163 2194 2226 2250 2273 2296 2327 2363 2409 2453 2489 2503 2523 2532 2538 2550 2569 2586 2604 2631 2656 2689 2732 2767 2760 2735 2709 2680 2664 2656 2631 2608 2580 2550 2523 2508 2489 2465 2439 2421 2402 2381 2359 2334 2307 2287 2263 2239 2214 2196 2165 2144 2126 2111 2101 2090 2072 2043 2012 1977 1935 1905 1876 1851 1830 1812 1791 1762 1741 1717 1674 1633 1589 1543 1507 1474 1431 1375 1322 1259 1218 1170 1145 1130 1118 1114 1118 1118 1114 1115 1128 1148 1180 1223 1266 1306 1345 1358 1370 1402 1432 1467 1498 1525 1544 1557 1570 1579 1584 1584 1584 1571 1556 1542 1515 1483 1449 1423 1399 1370 1336 1303 1272 1241 1219 1206 1207 1217 1220 1229 1250 1261 1279 1299 1324 1360 1387 1415 1439 1471 1499 1533 1563 1589 1616 1644 1668 1676 1665 1632 1590 1568 1588 1649 1712 1766 1812 1850 1876 1912 1943 1968 1983 1983 1978 1964 1946 1936 1927 1916 1926 1959 1999 2044 2080 2122 2164 2197 2241 2275 2295 2287 2254 2245 2248 2265 2278 2283 2296 2316 2350 2373 2377 2380 2388 2410 2437 2460 2483 2491 2487 2483 2481 2471 2464 2466
2756 2756 2746 2735 2729 2721 2719 2723 2726 2725 2739 2747 2756 2754 2730 2712 2692 2651 2628 2621 2616 2610 2605 2596 2589 2584 2582 2580 2575 2571 2568 2562 2556 2551 2554 2577 2567 2549 2518 2494 2485 2475 2471 2461 2452 2455 2453 2452 2453 2453 2447 2445 2446 2450 2449 2451 2457 2469 2502 2548 2582 2592 2616 2646 2673 2682 2700 2733 2765 2796 2801 2813 2829 2830 2831 2828 2837 2853 2873 2891 2908 2927 2963 2981 3008 3059 3100 3129 3167 3199 3207 3228 3231 3194 3159 3141 3125 3099 3060 3027 3009 2999 2987 2977 2968 2964 2955 2946 2932 2920 2913 2903 2890 2874 2855 2834 2815 2807 2814 2836 2865 2821 2771 2742 2728 2710 2689 2660 2630 2609 2601 2598 2597 2600 2604 2606 2614 2623 2651 2668 2647 2590 2507 2432 2394 2367 2350 2331 2313 2284 2233 2166 2128 2110 2110 2111 2111 2115 2118 2119 2120 2120 2122 2121 2124 2127 2131 2133 2133 2137 2137 2138 2138 2133 2129 2135 2153 2178 2209 2239 2264 2294 2327 2367 2411 2455 2491 2515 2536 2545 2552 2558 2571 2585 2603 2624 2654 2688 2736 2740 2708 2674 2651 2632 2616 2605 2593 2587 2578 2566 2545 2521 2489 2468 2449 2423 2396 2370 2348 2326 2306 2279 2246 2214 2186 2159 2140 2115 2089 2080 2062 2047 2033 2021 2004 1983 1952 1920 1900 1867 1832 1797 1777 1756 1736 1717 1681 1643 1604 1564 1519 1481 1443 1407 1368 1322 1275 1239 1194 1144 1125 1113 1109 1109 1107 1105 1106 1115 1135 1165 1200 1238 1280 1319 1334 1351 1387 1430 1469 1497 1519 1539 1552 1564 1568 1566 1560 1555 1532 1514 1501 1482 1456 1418 1381 1350 1315 1283 1254 1233 1214 1198 1202 1214 1226 1233 1248 1262 1267 1289 1322 1350 1380 1402 1430 1464 1500 1535 1567 1592 1620 1649 1675 1707 1730 1737 1715 1678 1636 1606 1615 1669 1730 1784 1842 1892 1934 1967 1994 2014 2026 2023 2011 2002 1997 1987 1974 1968 1977 2016 2061 2097 2148 2189 2225 2270 2295 2321 2335 2319 2295 2284 2285 2295 2309 2325 2346 2359 2369 2375 2378 2393 2422 2448 2469 2488 2510 2519 2515 2523 2529 2520 2513
2772 2764 2759 2755 2755 2755 2751 2756 2777 2801 2830 2835 2831 2841 2806 2783 2750 2696 2651 2624 2615 2606 2598 2595 2587 2579 2573 2567 2564 2560 2556 2550 2546 2538 2534 2529 2506 2499 2496 2484 2477 2469 2469 2463 2458 2453 2450 2449 2448 2448 2447 2446 2442 2439 2439 2434 2436 2439 2448 2465 2493 2514 2537 2556 2582 2603 2620 2649 2682 2695 2715 2750 2773 2782 2772 2770 2783 2802 2819 2845 2862 2887 2913 2931 2958 3014 3062 3097 3145 3171 3205 3236 3239 3187 3141 3115 3095 3071 3042 3004 2974 2958 2950 2941 2923 2910 2898 2888 2882 2875 2869 2860 2849 2841 2827 2811 2793 2779 2775 2789 2817 2813 2774 2737 2709 2695 2683 2660 2624 2591 2574 2565 2559 2561 2563 2560 2564 2570 2589 2602 2589 2559 2476 2419 2392 2362 2336 2328 2319 2288 2249 2181 2132 2108 2109 2109 2110 2112 2114 2114 2114 2115 2115 2115 2117 2121 2125 2127 2129 2131 2130 2131 2130 2127 2127 2149 2172 2195 2223 2255 2282 2327 2370 2405 2445 2482 2517 2546 2564 2573 2570 2582 2601 2628 2658 2693 2720 2745 2740 2695 2655 2629 2598 2579 2569 2569 2559 2545 2539 2536 2536 2527 2489 2452 2434 2411 2383 2357 2327 2302 2283 2264 2230 2189 2150 2119 2085 2061 2039 2023 2012 2007 1985 1966 1959 1946 1924 1902 1878 1845 1820 1796 1765 1733 1699 1677 1648 1614 1572 1533 1490 1457 1429 1407 1380 1337 1299 1256 1203 1155 1120 1106 1108 1104 1103 1100 1099 1110 1131 1153 1184 1216 1249 1282 1309 1349 1393 1440 1466 1491 1510 1533 1548 1556 1557 1551 1540 1526 1501 1484 1468 1442 1409 1379 1342 1305 1271 1246 1221 1206 1190 1194 1214 1230 1239 1245 1260 1271 1286 1313 1349 1378 1408 1438 1468 1498 1527 1565 1597 1627 1661 1689 1714 1738 1763 1781 1778 1752 1720 1679 1645 1650 1695 1754 1820 1879 1927 1965 2006 2030 2049 2062 2064 2059 2055 2051 2036 2028 2021 2034 2069 2109 2151 2199 2243 2290 2332 2370 2393 2380 2345 2327 2322 2328 2341 2356 2371 2371 2370 2367 2377 2399 2432 2465 2481 2490 2508 2529 2547 2578 2592 2586 2578
2798 2790 2789 2791 2797 2799 2825 2870 2881 2878 2899 2901 2899 2883 2872 2864 2798 2732 2688 2646 2626 2609 2598 2589 2584 2579 2568 2566 2559 2554 2550 2542 2537 2529 2526 2517 2508 2494 2490 2488 2477 2470 2466 2458 2453 2447 2445 2445 2444 2440 2439 2441 2437 2430 2425 2425 2424 2411 2414 2424 2426 2431 2451 2472 2490 2515 2546 2570 2598 2621 2644 2679 2708 2708 2709 2722 2738 2756 2774 2800 2818 2844 2869 2894 2945 2995 3017 3053 3107 3137 3195 3245 3249 3187 3131 3085 3057 3040 3015 2980 2950 2931 2920 2902 2884 2865 2857 2848 2836 2828 2819 2806 2800 2798 2788 2779 2768 2760 2754 2757 2774 2786 2784 2736 2698 2680 2663 2638 2611 2578 2555 2544 2534 2530 2514 2507 2510 2510 2506 2527 2531 2499 2441 2408 2388 2354 2328 2321 2324 2302 2251 2204 2133 2110 2102 2103 2107 2109 2109 2111 2113 2110 2111 2113 2115 2117 2118 2123 2123 2123 2123 2125 2117 2116 2129 2153 2182 2208 2233 2274 2314 2350 2390 2431 2463 2504 2540 2577 2616 2649 2664 2668 2680 2688 2708 2715 2725 2719 2689 2651 2628 2600 2572 2556 2545 2540 2528 2518 2511 2506 2506 2506 2489 2458 2439 2421 2383 2361 2337 2301 2278 2264 2238 2200 2155 2130 2084 2036 1996 1963 1951 1947 1937 1922 1904 1899 1890 1871 1841 1804 1773 1747 1735 1709 1683 1664 1639 1614 1588 1555 1534 1510 1475 1439 1395 1348 1302 1255 1212 1161 1112 1099 1099 1102 1101 1099 1099 1104 1120 1152 1191 1223 1259 1296 1335 1365 1410 1441 1463 1483 1506 1529 1541 1543 1535 1525 1507 1489 1465 1455 1423 1390 1361 1328 1294 1263 1235 1215 1198 1184 1190 1214 1234 1250 1261 1268 1275 1283 1302 1337 1365 1392 1419 1457 1493 1526 1565 1604 1629 1660 1694 1726 1752 1776 1791 1805 1807 1791 1767 1748 1730 1713 1716 1740 1792 1859 1918 1967 2010 2046 2076 2108 2127 2122 2120 2112 2099 2084 2077 2076 2099 2126 2158 2197 2238 2298 2344 2391 2425 2432 2411 2382 2363 2356 2365 2374 2375 2374 2377 2383 2398 2424 2459 2479 2489 2496 2516 2534 2558 2602 2629 2654 2637
2829 2827 2829 2841 2857 2881 2919 2915 2943 2990 2984 2969 2950 2906 2869 2841 2809 2772 2718 2685 2657 2621 2603 2590 2587 2580 2568 2566 2558 2553 2549 2540 2533 2527 2525 2515 2513 2505 2497 2489 2484 2479 2479 2472 2469 2464 2459 2456 2442 2433 2429 2428 2427 2423 2421 2416 2408 2405 2405 2405 2402 2403 2406 2408 2418 2438 2465 2486 2511 2541 2568 2596 2625 2637 2649 2671 2696 2715 2741 2759 2776 2807 2837 2869 2902 2945 2978 3018 3056 3115 3141 3174 3215 3181 3125 3069 3029 3006 2980 2957 2925 2904 2891 2877 2859 2843 2833 2817 2802 2784 2771 2757 2752 2747 2744 2739 2737 2728 2718 2723 2736 2745 2784 2760 2704 2679 2655 2629 2594 2569 2546 2531 2516 2498 2473 2454 2440 2425 2424 2441 2463 2448 2419 2399 2392 2352 2312 2310 2316 2292 2257 2215 2138 2102 2097 2099 2102 2105 2107 2107 2108 2104 2105 2107 2112 2112 2116 2115 2116 2116 2115 2107 2104 2117 2146 2171 2191 2224 2265 2306 2341 2366 2409 2447 2480 2519 2560 2601 2651 2702 2742 2767 2764 2751 2709 2686 2672 2651 2627 2615 2605 2586 2565 2549 2544 2537 2512 2502 2495 2488 2485 2480 2473 2465 2464 2446 2401 2374 2351 2327 2296 2273 2244 2217 2182 2146 2097 2051 2014 1964 1920 1893 1882 1870 1849 1837 1830 1818 1781 1741 1714 1688 1666 1651 1636 1624 1606 1590 1577 1559 1537 1501 1460 1415 1367 1324 1281 1242 1198 1148 1110 1100 1098 1098 1097 1095 1095 1102 1116 1149 1199 1235 1273 1319 1355 1375 1409 1442 1467 1489 1508 1528 1531 1521 1511 1494 1470 1451 1433 1407 1373 1341 1314 1283 1260 1236 1212 1191 1183 1196 1209 1225 1243 1255 1265 1278 1293 1303 1305 1324 1360 1409 1456 1493 1522 1562 1600 1633 1665 1701 1728 1761 1788 1812 1827 1834 1841 1843 1831 1811 1816 1817 1800 1781 1785 1844 1902 1949 1991 2036 2081 2112 2152 2178 2180 2163 2140 2126 2124 2126 2141 2154 2181 2210 2246 2298 2346 2394 2438 2468 2464 2440 2416 2404 2394 2388 2380 2384 2400 2425 2444 2453 2465 2473 2481 2495 2521 2551 2579 2608 2641 2682 2707
2856 2880 2889 2904 2937 2987 3013 3035 3082 3115 3084 3016 2989 2950 2912 2869 2835 2806 2769 2736 2704 2664 2634 2602 2584 2580 2572 2563 2554 2554 2549 2542 2536 2528 2525 2516 2513 2512 2507 2503 2503 2498 2493 2485 2478 2467 2462 2456 2449 2442 2438 2425 2417 2411 2413 2408 2400 2394 2387 2388 2390 2390 2388 2387 2382 2384 2399 2411 2431 2453 2480 2507 2535 2552 2571 2607 2638 2662 2693 2714 2740 2797 2812 2833 2855 2872 2893 2932 2984 3022 3076 3126 3152 3161 3114 3052 3013 2971 2943 2924 2897 2871 2856 2845 2826 2817 2807 2782 2766 2750 2735 2721 2712 2700 2695 2692 2693 2689 2683 2697 2700 2691 2748 2769 2723 2687 2651 2624 2588 2559 2533 2509 2485 2460 2439 2415 2370 2352 2348 2357 2384 2396 2393 2382 2377 2333 2291 2298 2302 2281 2236 2195 2114 2091 2093 2095 2100 2102 2102 2104 2103 2098 2100 2101 2103 2105 2109 2108 2107 2102 2098 2091 2109 2132 2153 2179 2212 2248 2282 2319 2351 2384 2428 2470 2502 2540 2581 2641 2690 2742 2797 2820 2806 2741 2675 2644 2617 2594 2588 2596 2596 2569 2552 2540 2538 2529 2505 2488 2477 2471 2470 2465 2453 2444 2451 2439 2398 2388 2379 2339 2306 2278 2234 2201 2173 2133 2091 2053 2022 1982 1942 1909 1884 1850 1818 1779 1750 1725 1704 1681 1654 1621 1599 1581 1562 1553 1542 1542 1539 1542 1523 1490 1450 1400 1351 1314 1263 1217 1179 1136 1097 1097 1096 1093 1091 1093 1096 1104 1117 1146 1192 1237 1279 1322 1360 1380 1411 1448 1473 1493 1508 1514 1508 1494 1481 1467 1439 1413 1389 1358 1323 1297 1280 1252 1231 1205 1182 1187 1205 1217 1229 1240 1249 1257 1271 1306 1340 1357 1358 1346 1343 1387 1448 1500 1542 1589 1628 1663 1693 1733 1767 1797 1823 1846 1861 1867 1873 1884 1882 1874 1873 1875 1870 1847 1822 1841 1907 1955 2000 2032 2071 2103 2148 2184 2214 2222 2204 2171 2161 2165 2180 2201 2217 2239 2259 2305 2370 2402 2440 2479 2512 2518 2501 2471 2455 2441 2422 2416 2422 2433 2444 2447 2451 2463 2482 2509 2539 2570 2591 2617 2674 2701 2705
2928 2934 2942 2960 3013 3063 3098 3125 3171 3193 3166 3100 3050 3029 2983 2938 2908 2888 2845 2793 2763 2735 2689 2656 2614 2587 2574 2566 2560 2554 2549 2541 2536 2533 2533 2526 2522 2519 2514 2508 2504 2495 2488 2486 2484 2477 2472 2459 2442 2434 2433 2431 2428 2417 2407 2396 2396 2394 2388 2380 2375 2375 2377 2375 2377 2375 2372 2370 2376 2381 2399 2424 2448 2467 2486 2533 2580 2611 2644 2673 2698 2732 2746 2764 2775 2802 2833 2862 2906 2950 2987 3048 3098 3118 3102 3054 2989 2935 2904 2877 2859 2835 2823 2809 2793 2782 2764 2747 2731 2714 2701 2686 2675 2661 2648 2642 2642 2643 2647 2659 2656 2650 2681 2739 2737 2703 2653 2617 2579 2550 2517 2477 2447 2426 2401 2361 2322 2306 2302 2305 2324 2352 2356 2358 2339 2305 2276 2284 2274 2245 2204 2165 2094 2085 2088 2089 2093 2096 2097 2099 2097 2094 2092 2094 2094 2097 2100 2097 2092 2084 2078 2088 2112 2133 2163 2196 2227 2254 2293 2331 2377 2414 2448 2486 2519 2556 2598 2659 2718 2766 2812 2816 2771 2703 2636 2603 2579 2564 2561 2568 2562 2541 2528 2524 2523 2513 2498 2483 2466 2453 2448 2446 2434 2423 2423 2425 2414 2406 2387 2342 2313 2276 2233 2196 2159 2116 2074 2036 1999 1969 1939 1912 1879 1839 1798 1749 1700 1667 1642 1613 1592 1561 1537 1516 1500 1482 1467 1460 1465 1489 1493 1474 1444 1400 1355 1309 1260 1209 1163 1122 1092 1092 1092 1092 1091 1092 1103 1112 1124 1150 1196 1245 1299 1337 1367 1390 1424 1450 1472 1488 1490 1486 1472 1453 1445 1428 1397 1371 1343 1310 1276 1257 1242 1224 1199 1173 1177 1200 1219 1235 1244 1256 1267 1284 1324 1354 1381 1393 1407 1422 1395 1372 1406 1465 1519 1609 1657 1698 1724 1762 1800 1829 1857 1876 1888 1896 1908 1923 1929 1930 1934 1929 1919 1893 1862 1871 1927 1979 2027 2068 2098 2119 2149 2186 2223 2257 2260 2228 2204 2210 2222 2234 2243 2260 2283 2310 2358 2406 2449 2483 2516 2526 2506 2485 2468 2456 2445 2433 2427 2430 2434 2442 2455 2481 2509 2532 2558 2579 2598 2640 2686 2694 2682
3045 3029 3027 3059 3097 3138 3177 3190 3201 3221 3213 3150 3092 3076 3042 2998 2964 2923 2889 2866 2844 2796 2756 2705 2661 2623 2587 2568 2562 2555 2552 2547 2542 2538 2534 2529 2524 2518 2515 2505 2502 2502 2500 2496 2489 2490 2486 2472 2457 2440 2429 2426 2425 2424 2420 2409 2396 2386 2382 2378 2371 2369 2366 2366 2364 2359 2357 2355 2354 2353 2356 2367 2379 2395 2418 2448 2488 2546 2569 2597 2619 2627 2651 2670 2700 2737 2781 2803 2828 2873 2905 2972 3055 3094 3099 3054 3002 2940 2883 2853 2832 2812 2792 2774 2757 2742 2726 2710 2694 2676 2658 2639 2623 2612 2603 2597 2592 2593 2599 2617 2611 2614 2662 2709 2718 2689 2647 2611 2572 2539 2507 2472 2430 2402 2371 2337 2301 2285 2272 2263 2272 2301 2313 2321 2306 2257 2240 2247 2225 2194 2156 2111 2080 2080 2083 2084 2089 2094 2094 2096 2092 2090 2086 2085 2086 2086 2084 2083 2078 2069 2065 2082 2114 2147 2179 2212 2240 2272 2312 2356 2404 2434 2469 2504 2538 2576 2627 2672 2722 2786 2832 2821 2750 2649 2599 2574 2559 2545 2540 2542 2530 2520 2516 2519 2514 2498 2479 2465 2448 2433 2419 2416 2412 2403 2405 2418 2418 2403 2376 2350 2310 2269 2225 2184 2146 2101 2058 2026 1993 1961 1924 1884 1844 1808 1774 1730 1676 1642 1624 1608 1588 1571 1554 1536 1519 1489 1456 1424 1401 1416 1444 1435 1414 1382 1342 1293 1248 1201 1153 1116 1090 1087 1086 1088 1094 1104 1120 1127 1137 1161 1203 1250 1303 1345 1364 1394 1427 1446 1465 1474 1468 1458 1444 1431 1412 1385 1355 1327 1298 1267 1239 1224 1197 1178 1185 1200 1223 1226 1237 1259 1271 1285 1290 1306 1338 1372 1407 1430 1459 1479 1467 1433 1407 1430 1493 1589 1646 1692 1747 1794 1825 1857 1887 1902 1918 1934 1949 1963 1969 1976 1983 1985 1970 1940 1901 1893 1935 1980 2032 2075 2115 2144 2179 2222 2250 2279 2304 2302 2263 2246 2240 2247 2260 2275 2296 2316 2353 2408 2436 2461 2501 2519 2505 2483 2474 2470 2464 2457 2455 2456 2462 2482 2497 2515 2534 2554 2572 2582 2615 2664 2674 2661 2652
3152 3144 3144 3156 3182 3239 3258 3255 3265 3274 3255 3213 3147 3120 3080 3032 2991 2946 2915 2890 2858 2820 2773 2744 2713 2676 2620 2573 2562 2556 2548 2547 2542 2535 2533 2532 2527 2517 2517 2511 2511 2512 2511 2513 2526 2540 2541 2544 2528 2489 2440 2429 2420 2415 2414 2414 2409 2402 2388 2374 2367 2364 2360 2359 2355 2348 2342 2343 2344 2343 2341 2341 2341 2347 2361 2387 2412 2447 2484 2499 2523 2545 2567 2599 2618 2648 2695 2739 2794 2833 2870 2923 3022 3062 3067 3044 2994 2922 2871 2843 2819 2805 2790 2763 2736 2709 2692 2672 2654 2639 2614 2592 2562 2548 2542 2539 2538 2547 2559 2565 2564 2579 2636 2676 2689 2669 2632 2589 2557 2537 2510 2470 2438 2398 2360 2316 2280 2253 2235 2228 2227 2246 2251 2257 2232 2204 2199 2192 2170 2136 2095 2073 2066 2069 2071 2077 2085 2088 2087 2088 2085 2082 2079 2076 2076 2074 2072 2070 2064 2056 2065 2097 2131 2162 2193 2228 2259 2294 2335 2380 2417 2455 2492 2523 2558 2599 2636 2685 2742 2802 2840 2822 2714 2609 2572 2555 2548 2540 2527 2526 2527 2523 2518 2519 2513 2490 2471 2448 2430 2415 2400 2393 2386 2382 2387 2397 2398 2382 2351 2318 2282 2240 2201 2167 2129 2088 2046 2012 1982 1950 1921 1897 1874 1847 1807 1759 1734 1707 1676 1648 1623 1601 1585 1569 1550 1531 1509 1471 1421 1381 1378 1381 1359 1324 1315 1286 1234 1185 1145 1107 1087 1087 1085 1085 1098 1112 1118 1128 1145 1175 1214 1265 1311 1351 1372 1398 1425 1439 1446 1443 1432 1422 1408 1388 1364 1336 1311 1285 1251 1224 1196 1179 1165 1174 1210 1232 1244 1250 1257 1276 1303 1327 1340 1341 1352 1386 1419 1451 1482 1515 1530 1492 1458 1430 1449 1529 1601 1660 1710 1773 1811 1849 1896 1920 1948 1973 1991 2001 2018 2031 2040 2035 2013 1983 1954 1938 1956 1987 2030 2070 2111 2158 2213 2253 2291 2317 2336 2348 2332 2291 2271 2270 2278 2296 2314 2333 2364 2394 2419 2449 2502 2538 2539 2523 2511 2505 2516 2514 2510 2510 2509 2510 2524 2539 2549 2559 2579 2603 2635 2645 2636 2625 2631
3265 3275 3278 3291 3308 3327 3334 3318 3302 3277 3245 3225 3190 3143 3109 3077 3037 2990 2941 2916 2894 2862 2826 2798 2768 2724 2655 2605 2568 2557 2549 2545 2542 2538 2537 2534 2532 2528 2529 2532 2536 2545 2566 2587 2607 2615 2627 2639 2635 2607 2559 2494 2441 2417 2408 2406 2404 2403 2401 2396 2384 2370 2354 2349 2347 2343 2341 2338 2332 2328 2328 2327 2327 2327 2332 2334 2344 2364 2382 2415 2442 2471 2495 2528 2562 2588 2630 2684 2757 2808 2859 2918 2972 3013 3037 3022 2957 2900 2879 2842 2802 2787 2784 2771 2739 2691 2658 2637 2611 2590 2563 2523 2491 2485 2479 2483 2490 2503 2515 2523 2522 2543 2601 2636 2662 2647 2610 2569 2542 2528 2505 2480 2441 2407 2363 2306 2258 2222 2195 2188 2183 2186 2184 2181 2164 2154 2145 2130 2115 2086 2072 2062 2055 2056 2061 2068 2072 2077 2079 2079 2076 2072 2066 2064 2063 2062 2058 2055 2052 2060 2085 2127 2154 2180 2208 2237 2279 2314 2350 2391 2436 2473 2508 2545 2578 2622 2663 2721 2774 2821 2840 2789 2698 2594 2567 2548 2540 2537 2527 2521 2519 2514 2505 2503 2496 2479 2467 2444 2409 2391 2382 2370 2358 2354 2354 2356 2356 2350 2321 2289 2256 2216 2177 2148 2116 2079 2048 2024 1996 1965 1941 1921 1898 1869 1838 1800 1767 1730 1693 1653 1615 1583 1552 1534 1515 1498 1489 1477 1440 1407 1373 1352 1317 1284 1267 1248 1215 1179 1135 1098 1087 1085 1083 1081 1091 1100 1110 1138 1166 1200 1242 1284 1329 1355 1367 1385 1409 1422 1417 1406 1396 1384 1360 1344 1319 1289 1259 1231 1200 1180 1172 1190 1213 1225 1238 1252 1259 1266 1274 1288 1302 1321 1348 1366 1382 1412 1445 1479 1516 1546 1575 1581 1536 1492 1460 1478 1538 1597 1658 1708 1766 1833 1904 1939 1972 1996 2023 2047 2071 2083 2088 2074 2047 2019 1994 1979 1988 2018 2057 2097 2134 2181 2228 2272 2313 2343 2366 2380 2383 2353 2324 2315 2313 2316 2324 2339 2363 2398 2427 2462 2496 2530 2564 2574 2573 2574 2575 2570 2553 2545 2535 2537 2548 2551 2552 2572 2606 2625 2617 2605 2593 2595 2609
3393 3380 3425 3449 3445 3437 3400 3347 3284 3249 3224 3205 3190 3158 3122 3091 3050 3021 2986 2959 2931 2897 2866 2843 2802 2732 2678 2643 2596 2579 2565 2553 2550 2550 2537 2536 2541 2549 2553 2566 2578 2605 2628 2656 2685 2711 2729 2727 2696 2660 2611 2555 2505 2461 2421 2404 2395 2390 2390 2392 2388 2382 2374 2358 2346 2339 2333 2330 2326 2322 2318 2319 2317 2316 2317 2316 2316 2322 2334 2343 2360 2392 2427 2465 2515 2562 2600 2662 2726 2772 2812 2883 2914 2951 2957 2954 2918 2891 2879 2837 2785 2772 2764 2750 2718 2678 2639 2608 2578 2549 2501 2458 2440 2431 2428 2428 2439 2457 2471 2480 2492 2536 2566 2592 2616 2605 2576 2540 2520 2504 2482 2456 2433 2398 2363 2313 2249 2213 2181 2158 2145 2133 2133 2129 2122 2110 2096 2093 2078 2056 2049 2046 2039 2039 2046 2055 2062 2067 2068 2066 2063 2061 2057 2057 2056 2055 2051 2048 2054 2096 2131 2151 2170 2190 2216 2251 2290 2322 2369 2407 2447 2486 2523 2569 2615 2660 2705 2751 2799 2831 2815 2747 2685 2628 2583 2542 2532 2532 2529 2520 2507 2500 2488 2476 2464 2448 2438 2425 2399 2371 2351 2335 2330 2325 2314 2305 2295 2293 2281 2262 2238 2202 2164 2136 2112 2088 2062 2037 2007 1982 1952 1926 1903 1875 1844 1816 1790 1750 1712 1673 1633 1600 1574 1539 1501 1471 1448 1434 1420 1407 1392 1357 1318 1279 1239 1215 1184 1153 1121 1105 1093 1087 1085 1082 1082 1092 1121 1159 1191 1231 1266 1304 1336 1345 1354 1377 1393 1395 1388 1383 1366 1342 1316 1290 1257 1229 1204 1168 1162 1180 1203 1218 1229 1246 1268 1289 1300 1308 1318 1330 1346 1360 1359 1372 1414 1440 1474 1513 1552 1584 1608 1638 1629 1598 1550 1520 1517 1548 1606 1669 1720 1815 1888 1933 1974 2016 2049 2082 2119 2136 2136 2116 2089 2064 2049 2035 2033 2052 2090 2132 2179 2219 2255 2296 2329 2357 2381 2397 2390 2375 2354 2341 2334 2330 2344 2364 2384 2409 2438 2459 2493 2532 2565 2586 2601 2606 2605 2606 2604 2599 2583 2567 2564 2564 2571 2592 2617 2614 2592 2574 2568 2574 2576
3543 3521 3528 3552 3531 3514 3458 3381 3297 3245 3208 3180 3153 3123 3096 3064 3040 3014 2995 2964 2946 2912 2878 2838 2793 2742 2703 2685 2651 2612 2587 2576 2566 2562 2551 2549 2559 2576 2588 2597 2622 2651 2689 2722 2750 2785 2807 2805 2772 2718 2661 2612 2574 2543 2493 2447 2417 2405 2392 2383 2377 2370 2369 2365 2361 2352 2343 2329 2321 2317 2317 2316 2312 2308 2308 2304 2305 2306 2310 2309 2314 2318 2341 2379 2434 2498 2552 2601 2653 2690 2727 2768 2801 2836 2856 2862 2855 2857 2845 2812 2777 2759 2738 2712 2678 2644 2614 2585 2555 2524 2472 2430 2405 2391 2386 2387 2395 2415 2429 2440 2460 2503 2540 2566 2574 2565 2544 2513 2499 2480 2456 2435 2417 2383 2353 2319 2249 2190 2153 2124 2108 2104 2103 2092 2084 2072 2065 2059 2034 2025 2026 2019 2014 2023 2032 2042 2050 2053 2054 2052 2052 2051 2049 2048 2051 2050 2047 2046 2073 2120 2160 2175 2192 2207 2233 2268 2299 2335 2378 2415 2457 2500 2547 2591 2642 2689 2733 2779 2819 2819 2769 2718 2673 2642 2598 2538 2529 2528 2524 2511 2496 2486 2475 2452 2435 2420 2406 2391 2377 2359 2343 2321 2307 2292 2276 2259 2250 2246 2242 2231 2210 2180 2151 2126 2106 2087 2059 2035 2010 1986 1957 1928 1901 1872 1843 1822 1794 1756 1717 1686 1658 1631 1598 1566 1529 1496 1466 1438 1407 1378 1363 1350 1325 1280 1237 1199 1159 1141 1125 1116 1105 1091 1086 1083 1081 1104 1143 1182 1214 1249 1291 1326 1338 1327 1333 1351 1364 1361 1353 1341 1319 1291 1259 1231 1211 1198 1169 1156 1173 1196 1210 1227 1240 1266 1282 1299 1319 1348 1373 1386 1396 1407 1417 1403 1429 1474 1507 1545 1585 1618 1652 1688 1722 1736 1690 1647 1605 1573 1572 1623 1685 1789 1897 1936 1969 2009 2055 2098 2140 2163 2169 2163 2141 2112 2099 2094 2101 2110 2127 2161 2203 2247 2289 2324 2351 2374 2396 2409 2407 2385 2372 2367 2375 2378 2381 2387 2399 2412 2436 2472 2521 2549 2562 2569 2575 2576 2577 2578 2578 2575 2574 2580 2589 2598 2598 2593 2590 2575 2556 2549 2552 2544 2540
3643 3654 3665 3662 3632 3574 3492 3406 3310 3268 3198 3165 3144 3118 3092 3064 3042 3022 3002 2977 2954 2933 2890 2852 2811 2772 2728 2705 2684 2657 2633 2633 2603 2588 2582 2585 2593 2611 2627 2646 2668 2692 2734 2770 2802 2847 2876 2878 2839 2779 2719 2677 2632 2605 2597 2565 2525 2491 2443 2411 2389 2376 2371 2361 2355 2354 2353 2347 2334 2325 2320 2309 2307 2306 2303 2294 2295 2289 2285 2287 2291 2296 2296 2295 2335 2405 2477 2527 2564 2595 2631 2677 2712 2742 2772 2786 2793 2796 2797 2792 2769 2730 2698 2671 2639 2610 2576 2546 2518 2487 2452 2407 2382 2366 2357 2351 2357 2377 2391 2409 2438 2472 2512 2534 2541 2533 2524 2493 2476 2454 2428 2415 2391 2356 2327 2296 2220 2148 2113 2099 2079 2080 2068 2061 2054 2039 2033 2011 1992 1981 1980 1989 2001 2016 2024 2033 2037 2038 2042 2041 2042 2043 2042 2044 2047 2046 2042 2055 2110 2161 2187 2199 2212 2236 2254 2285 2319 2358 2395 2432 2476 2518 2558 2606 2662 2715 2760 2812 2822 2774 2723 2669 2623 2602 2571 2535 2522 2519 2508 2494 2480 2469 2453 2433 2414 2401 2384 2364 2356 2347 2339 2311 2284 2267 2243 2222 2215 2210 2205 2194 2177 2158 2134 2115 2097 2072 2047 2024 2002 1979 1956 1927 1899 1872 1848 1822 1793 1760 1719 1685 1661 1630 1602 1576 1544 1517 1487 1461 1433 1395 1354 1322 1293 1263 1234 1196 1156 1133 1126 1116 1105 1091 1084 1080 1093 1126 1170 1209 1242 1277 1319 1340 1321 1301 1308 1317 1317 1307 1297 1281 1261 1239 1214 1191 1171 1165 1160 1162 1184 1200 1221 1244 1266 1288 1315 1337 1355 1378 1408 1438 1456 1458 1455 1443 1444 1492 1546 1584 1617 1637 1672 1711 1754 1792 1795 1768 1734 1699 1658 1633 1655 1755 1865 1941 1983 2030 2064 2105 2147 2186 2205 2215 2192 2167 2149 2142 2144 2146 2158 2186 2224 2262 2295 2340 2371 2403 2434 2453 2466 2461 2445 2421 2412 2414 2420 2415 2415 2432 2470 2505 2525 2535 2541 2548 2553 2552 2555 2553 2551 2548 2551 2566 2577 2578 2565 2548 2531 2522 2516 2513 2508 2500 2496
3689 3739 3755 3743 3709 3630 3530 3412 3341 3307 3233 3173 3148 3127 3097 3068 3047 3029 3010 2983 2966 2937 2902 2869 2837 2805 2769 2741 2718 2699 2684 2678 2682 2665 2639 2639 2649 2654 2680 2698 2710 2729 2767 2799 2846 2904 2925 2929 2881 2830 2789 2764 2722 2703 2667 2628 2578 2543 2500 2466 2433 2409 2388 2366 2356 2346 2343 2341 2336 2334 2331 2316 2307 2300 2294 2290 2291 2287 2281 2278 2272 2275 2276 2277 2281 2299 2345 2416 2471 2526 2563 2606 2631 2663 2705 2728 2733 2730 2729 2737 2716 2689 2653 2627 2599 2570 2543 2516 2486 2456 2434 2399 2356 2343 2331 2323 2326 2339 2363 2386 2416 2443 2474 2495 2503 2503 2494 2473 2451 2433 2405 2383 2349 2317 2292 2238 2170 2105 2082 2060 2043 2045 2046 2040 2024 2002 1987 1964 1941 1936 1955 1980 1998 2010 2015 2022 2024 2025 2028 2029 2032 2036 2037 2038 2039 2036 2036 2065 2147 2177 2194 2215 2242 2258 2282 2311 2350 2391 2421 2460 2496 2534 2570 2615 2671 2734 2789 2821 2802 2747 2682 2629 2584 2551 2530 2515 2510 2501 2488 2476 2465 2457 2442 2418 2396 2381 2362 2346 2336 2323 2309 2287 2264 2244 2221 2206 2195 2183 2165 2155 2147 2137 2118 2100 2079 2054 2032 2012 1991 1971 1948 1920 1893 1868 1845 1817 1782 1753 1716 1674 1646 1612 1575 1549 1527 1502 1479 1451 1422 1383 1340 1303 1274 1239 1202 1167 1136 1121 1116 1106 1096 1084 1078 1082 1111 1155 1197 1233 1272 1303 1325 1326 1298 1274 1269 1270 1264 1258 1249 1244 1229 1204 1178 1151 1152 1168 1185 1197 1213 1226 1251 1270 1297 1325 1351 1374 1396 1416 1450 1479 1503 1508 1497 1489 1470 1478 1550 1605 1639 1665 1696 1736 1781 1823 1847 1858 1835 1797 1763 1738 1729 1772 1814 1889 1962 2048 2105 2138 2176 2207 2231 2252 2241 2216 2203 2186 2179 2180 2190 2211 2240 2270 2298 2333 2373 2418 2443 2458 2474 2482 2474 2451 2427 2423 2434 2442 2458 2481 2505 2513 2516 2527 2534 2537 2539 2540 2536 2529 2526 2527 2532 2536 2533 2522 2507 2490 2477 2467 2461 2464 2466 2461 2443
3722 3766 3783 3755 3702 3656 3567 3448 3358 3323 3281 3231 3194 3145 3099 3081 3054 3036 3014 2989 2964 2933 2901 2871 2851 2828 2806 2779 2757 2744 2758 2757 2747 2739 2728 2721 2722 2715 2728 2740 2743 2758 2790 2827 2890 2959 2976 2963 2907 2867 2829 2774 2746 2727 2687 2650 2622 2590 2549 2521 2514 2509 2487 2447 2409 2381 2361 2347 2335 2329 2326 2326 2321 2309 2294 2285 2282 2281 2279 2271 2271 2263 2259 2262 2265 2274 2287 2324 2380 2433 2481 2514 2547 2572 2616 2659 2670 2663 2655 2657 2644 2622 2603 2592 2571 2542 2512 2483 2456 2429 2403 2376 2339 2320 2311 2304 2301 2311 2336 2360 2387 2415 2436 2453 2466 2467 2459 2442 2414 2391 2362 2326 2289 2248 2203 2150 2104 2059 2037 2017 2017 2021 2019 2007 1978 1952 1938 1935 1936 1942 1957 1976 1991 2001 2007 2015 2018 2017 2020 2021 2023 2028 2030 2029 2027 2022 2029 2084 2150 2175 2208 2235 2264 2287 2322 2345 2379 2414 2449 2483 2519 2554 2591 2647 2701 2755 2802 2793 2760 2707 2649 2601 2552 2531 2518 2502 2491 2477 2471 2461 2452 2439 2419 2395 2377 2363 2347 2327 2309 2288 2270 2259 2249 2231 2214 2208 2184 2153 2124 2109 2105 2102 2094 2079 2057 2036 2016 1996 1972 1950 1927 1904 1887 1859 1836 1804 1774 1735 1691 1642 1606 1583 1547 1515 1484 1466 1452 1425 1385 1345 1306 1291 1275 1235 1196 1156 1121 1107 1101 1099 1093 1081 1079 1098 1134 1170 1208 1247 1285 1314 1322 1303 1279 1250 1240 1233 1230 1225 1220 1206 1184 1162 1156 1169 1185 1196 1209 1216 1228 1255 1280 1308 1341 1362 1389 1415 1442 1471 1497 1530 1558 1566 1554 1547 1526 1497 1521 1596 1642 1680 1729 1777 1820 1859 1885 1898 1906 1917 1901 1890 1845 1841 1842 1863 1929 2018 2093 2146 2225 2262 2280 2287 2279 2268 2254 2233 2211 2219 2228 2237 2253 2273 2298 2328 2367 2399 2413 2427 2450 2465 2474 2459 2443 2441 2456 2473 2493 2512 2515 2517 2519 2522 2529 2529 2528 2523 2514 2507 2503 2500 2495 2482 2472 2455 2443 2433 2423 2413 2411 2417 2416 2405 2385
3723 3739 3716 3675 3642 3620 3588 3510 3412 3375 3342 3320 3289 3255 3209 3161 3103 3062 3026 2997 2968 2940 2911 2895 2871 2844 2826 2816 2810 2811 2827 2834 2821 2807 2802 2793 2790 2773 2773 2772 2775 2786 2815 2891 2976 3016 3012 2953 2901 2854 2816 2781 2758 2724 2698 2676 2654 2625 2600 2595 2606 2610 2573 2530 2456 2464 2425 2391 2369 2342 2333 2327 2321 2312 2308 2299 2284 2275 2267 2265 2265 2260 2257 2257 2252 2258 2261 2263 2287 2336 2399 2447 2481 2495 2524 2547 2575 2592 2583 2571 2566 2556 2550 2550 2550 2538 2504 2464 2438 2414 2390 2362 2331 2308 2295 2286 2280 2283 2301 2331 2357 2381 2405 2419 2425 2427 2425 2405 2370 2333 2282 2243 2190 2156 2124 2097 2059 2010 1993 1982 1985 1975 1963 1952 1934 1926 1936 1942 1946 1953 1963 1974 1986 1993 1999 2005 2010 2013 2015 2016 2018 2018 2018 2017 2013 2008 2033 2096 2142 2189 2242 2277 2308 2330 2354 2384 2414 2444 2473 2508 2541 2578 2624 2668 2717 2769 2783 2740 2699 2655 2620 2574 2533 2522 2503 2487 2468 2457 2454 2441 2432 2415 2396 2379 2368 2348 2323 2299 2274 2254 2240 2233 2229 2223 2218 2208 2176 2133 2092 2066 2051 2050 2051 2042 2026 2011 1995 1972 1950 1920 1897 1881 1868 1839 1812 1786 1748 1711 1662 1615 1570 1538 1509 1480 1452 1426 1409 1383 1344 1308 1290 1280 1252 1212 1175 1134 1098 1087 1085 1085 1083 1076 1082 1109 1146 1187 1227 1271 1299 1307 1298 1276 1251 1226 1215 1205 1199 1191 1180 1161 1152 1169 1190 1201 1207 1213 1221 1237 1262 1287 1317 1352 1379 1410 1445 1469 1497 1525 1549 1584 1613 1617 1608 1596 1587 1563 1540 1562 1623 1681 1752 1798 1839 1880 1908 1922 1937 1958 1978 1971 1941 1927 1938 1977 1993 2029 2088 2160 2228 2269 2320 2332 2317 2297 2292 2285 2271 2267 2268 2278 2284 2300 2322 2345 2364 2381 2398 2416 2438 2456 2474 2481 2483 2484 2494 2503 2506 2507 2505 2508 2511 2511 2512 2511 2506 2498 2493 2481 2463 2448 2435 2420 2409 2401 2395 2390 2379 2370 2372 2372 2366 2359 2366
3635 3634 3603 3553 3526 3516 3523 3510 3492 3484 3440 3393 3354 3320 3290 3241 3201 3142 3095 3061 3027 2993 2960 2945 2905 2871 2885 2882 2909 2934 2933 2902 2882 2862 2847 2824 2818 2813 2806 2802 2805 2832 2883 2986 3048 3053 3009 2942 2896 2853 2820 2796 2775 2753 2728 2701 2679 2656 2647 2650 2677 2687 2670 2666 2623 2576 2537 2483 2456 2411 2379 2360 2334 2311 2308 2304 2296 2284 2276 2264 2252 2249 2251 2250 2239 2240 2246 2256 2258 2273 2305 2392 2422 2439 2445 2448 2457 2474 2480 2483 2488 2479 2478 2483 2492 2501 2490 2465 2428 2402 2375 2348 2317 2294 2279 2270 2264 2263 2273 2302 2329 2351 2376 2386 2385 2387 2381 2349 2305 2245 2199 2148 2112 2084 2058 2040 1997 1972 1955 1942 1936 1917 1914 1914 1919 1928 1939 1946 1954 1960 1966 1974 1983 1991 1996 2001 2004 2007 2008 2008 2010 2011 2010 2006 2003 1999 2032 2103 2158 2212 2261 2300 2337 2366 2395 2418 2447 2473 2502 2533 2568 2608 2645 2678 2718 2735 2718 2664 2627 2605 2581 2545 2531 2512 2489 2467 2447 2438 2429 2416 2404 2391 2380 2371 2360 2325 2296 2269 2248 2233 2221 2215 2213 2211 2205 2191 2162 2127 2085 2048 2023 2012 2000 1990 1977 1968 1954 1934 1913 1885 1862 1850 1837 1813 1792 1750 1711 1682 1650 1604 1547 1502 1472 1440 1418 1388 1361 1338 1305 1287 1282 1266 1230 1190 1150 1113 1085 1076 1075 1073 1074 1076 1083 1116 1161 1205 1244 1283 1297 1282 1266 1245 1222 1207 1197 1183 1164 1149 1144 1159 1186 1202 1205 1212 1223 1239 1256 1277 1303 1333 1365 1395 1432 1467 1493 1520 1550 1580 1608 1633 1656 1669 1664 1656 1643 1625 1606 1594 1617 1673 1738 1784 1827 1872 1915 1944 1975 1999 2027 2038 2025 2019 2026 2040 2064 2086 2112 2169 2228 2277 2338 2358 2355 2338 2321 2309 2301 2301 2306 2314 2324 2334 2344 2355 2375 2395 2409 2416 2425 2444 2458 2475 2495 2499 2495 2496 2495 2496 2498 2495 2497 2500 2495 2488 2478 2468 2456 2436 2413 2395 2385 2370 2358 2355 2350 2349 2344 2336 2328 2327 2331 2351 2374
3542 3548 3494 3467 3451 3428 3429 3428 3453 3491 3504 3492 3461 3422 3361 3313 3248 3195 3160 3133 3131 3118 3093 3066 3020 2996 3019 3009 2987 2962 2947 2933 2921 2904 2885 2866 2849 2841 2830 2835 2847 2872 2934 3021 3078 3091 3043 2980 2915 2865 2830 2807 2792 2771 2744 2730 2716 2706 2712 2729 2741 2762 2784 2745 2705 2651 2594 2566 2559 2531 2498 2451 2417 2374 2348 2326 2304 2291 2286 2278 2261 2257 2247 2244 2240 2231 2231 2236 2245 2251 2262 2326 2389 2399 2386 2371 2353 2351 2367 2391 2396 2399 2401 2415 2430 2436 2440 2429 2406 2385 2364 2334 2303 2276 2256 2253 2248 2247 2251 2277 2304 2328 2342 2345 2338 2334 2321 2287 2233 2132 2100 2071 2035 2013 1984 1976 1945 1920 1895 1891 1897 1901 1904 1910 1921 1930 1939 1947 1955 1964 1971 1979 1985 1991 1996 1998 1999 2001 2003 2003 2005 2007 2004 1999 1992 2002 2047 2115 2179 2226 2266 2306 2340 2376 2408 2440 2475 2510 2538 2567 2593 2616 2634 2654 2675 2669 2626 2580 2572 2557 2533 2521 2508 2485 2463 2437 2418 2406 2393 2382 2377 2374 2364 2351 2326 2295 2270 2250 2232 2219 2212 2205 2197 2183 2169 2152 2136 2112 2087 2055 2027 2007 1978 1949 1926 1911 1902 1887 1867 1853 1836 1820 1808 1784 1751 1719 1686 1668 1641 1596 1541 1496 1460 1413 1376 1351 1324 1305 1291 1270 1245 1227 1196 1162 1126 1092 1070 1068 1065 1067 1069 1076 1104 1142 1178 1214 1257 1288 1278 1255 1233 1212 1198 1186 1172 1150 1143 1165 1195 1211 1223 1225 1220 1226 1246 1267 1291 1324 1354 1382 1412 1445 1480 1518 1542 1571 1609 1643 1669 1685 1694 1710 1719 1709 1699 1690 1677 1668 1668 1685 1723 1756 1807 1860 1909 1951 1995 2038 2070 2092 2099 2098 2098 2106 2127 2155 2188 2227 2268 2299 2327 2350 2363 2357 2337 2328 2316 2309 2315 2324 2338 2353 2366 2376 2392 2407 2415 2420 2431 2444 2459 2476 2490 2488 2485 2485 2483 2485 2483 2484 2484 2478 2464 2449 2432 2413 2401 2382 2362 2350 2343 2330 2319 2315 2312 2309 2298 2290 2301 2317 2336 2360 2389
3433 3448 3421 3398 3376 3359 3347 3325 3345 3409 3476 3541 3552 3502 3459 3393 3335 3303 3267 3245 3216 3197 3179 3148 3098 3067 3042 3022 3006 2993 2977 2959 2944 2927 2912 2899 2883 2873 2869 2872 2885 2911 3002 3070 3117 3083 3045 2995 2935 2899 2871 2835 2810 2801 2788 2788 2789 2793 2800 2848 2866 2887 2887 2832 2781 2735 2708 2652 2622 2591 2568 2543 2513 2479 2445 2393 2356 2319 2289 2274 2272 2263 2253 2244 2238 2231 2224 2227 2231 2234 2236 2247 2362 2383 2358 2317 2294 2282 2270 2287 2300 2307 2321 2332 2351 2365 2379 2383 2368 2352 2339 2316 2285 2260 2241 2233 2232 2231 2236 2255 2283 2306 2310 2303 2295 2292 2273 2221 2131 2071 2039 2005 1968 1942 1915 1897 1887 1878 1873 1885 1895 1905 1909 1915 1925 1934 1942 1951 1958 1966 1973 1979 1983 1985 1983 1988 1989 1990 1993 1994 1997 1996 1992 1988 1993 2020 2068 2124 2176 2226 2265 2303 2340 2381 2418 2459 2496 2531 2560 2578 2592 2604 2619 2637 2633 2596 2533 2518 2516 2500 2486 2477 2460 2440 2423 2402 2385 2374 2368 2366 2366 2353 2335 2311 2289 2267 2251 2238 2226 2217 2205 2190 2166 2146 2130 2118 2108 2098 2078 2057 2041 2021 1977 1933 1901 1883 1866 1842 1822 1801 1798 1778 1760 1740 1710 1680 1662 1637 1607 1578 1536 1488 1437 1396 1355 1318 1310 1290 1271 1249 1217 1182 1157 1132 1101 1074 1060 1061 1062 1066 1069 1085 1120 1154 1192 1232 1266 1272 1254 1236 1212 1190 1170 1153 1137 1147 1183 1207 1218 1225 1232 1233 1243 1265 1288 1305 1326 1357 1379 1409 1447 1487 1518 1556 1590 1629 1665 1693 1708 1724 1742 1758 1766 1766 1758 1746 1740 1753 1768 1755 1744 1755 1788 1837 1895 1947 1997 2046 2080 2111 2138 2163 2168 2161 2172 2196 2222 2248 2272 2302 2330 2349 2364 2373 2376 2364 2352 2345 2349 2352 2365 2377 2391 2398 2410 2422 2433 2438 2448 2454 2463 2474 2477 2477 2475 2468 2465 2463 2458 2454 2443 2428 2412 2390 2373 2358 2345 2332 2323 2314 2303 2287 2280 2277 2276 2271 2269 2287 2311 2331 2356 2388 2424
3353 3360 3382 3336 3315 3307 3285 3269 3270 3332 3428 3487 3538 3565 3526 3463 3407 3344 3307 3281 3257 3229 3203 3170 3128 3086 3063 3045 3030 3017 2996 2984 2962 2949 2936 2925 2914 2925 2937 2946 2973 3046 3094 3140 3143 3085 3014 2974 2950 2925 2904 2878 2857 2852 2846 2849 2862 2857 2872 2961 3010 3018 2965 2910 2863 2808 2778 2747 2716 2673 2650 2599 2569 2535 2516 2490 2456 2421 2383 2330 2289 2267 2262 2255 2248 2239 2224 2214 2220 2221 2230 2231 2321 2363 2342 2303 2258 2230 2216 2211 2214 2219 2240 2251 2275 2297 2313 2328 2324 2314 2311 2293 2263 2244 2230 2223 2219 2211 2218 2231 2258 2276 2280 2263 2262 2251 2219 2137 2072 2033 1985 1941 1910 1882 1858 1857 1864 1865 1875 1886 1897 1908 1915 1922 1929 1934 1941 1948 1956 1963 1969 1972 1975 1978 1976 1979 1978 1981 1983 1984 1985 1984 1981 1985 2008 2040 2079 2126 2176 2224 2271 2313 2356 2390 2437 2476 2508 2535 2553 2562 2573 2577 2588 2595 2569 2507 2471 2466 2459 2442 2435 2426 2416 2405 2391 2378 2368 2360 2359 2356 2340 2319 2300 2282 2266 2259 2248 2236 2222 2207 2188 2169 2146 2121 2095 2082 2073 2068 2053 2035 2015 1992 1958 1915 1880 1854 1837 1815 1787 1756 1736 1721 1702 1680 1659 1642 1627 1599 1572 1548 1504 1457 1416 1373 1338 1307 1279 1261 1251 1230 1193 1150 1120 1097 1076 1061 1056 1059 1060 1063 1074 1098 1132 1170 1211 1248 1264 1246 1222 1200 1184 1156 1130 1137 1163 1187 1200 1208 1217 1228 1231 1243 1267 1292 1314 1335 1357 1380 1405 1440 1484 1516 1555 1596 1634 1674 1704 1722 1733 1747 1761 1775 1791 1805 1808 1803 1806 1818 1831 1822 1820 1833 1843 1872 1914 1963 1997 2034 2068 2112 2156 2191 2211 2211 2205 2209 2221 2251 2281 2314 2333 2343 2360 2375 2387 2389 2385 2379 2381 2387 2388 2393 2401 2412 2425 2438 2448 2451 2458 2463 2464 2470 2471 2465 2453 2443 2436 2428 2415 2403 2388 2369 2354 2336 2320 2310 2302 2294 2286 2272 2261 2246 2238 2238 2239 2257 2294 2328 2362 2393 2419 2435 2455
3259 3272 3277 3263 3256 3248 3235 3222 3216 3233 3376 3429 3480 3517 3540 3514 3449 3365 3309 3281 3255 3234 3207 3173 3143 3113 3088 3066 3054 3036 3024 3011 2994 2995 2987 3001 3024 3003 3041 3075 3112 3141 3165 3177 3159 3139 3085 3037 2999 2972 2972 2975 2932 2896 2878 2893 2922 2910 2927 3027 3090 3063 3008 2964 2937 2883 2867 2834 2803 2777 2744 2698 2653 2619 2583 2536 2484 2446 2407 2371 2327 2292 2266 2252 2249 2243 2233 2219 2212 2204 2199 2205 2252 2323 2327 2304 2260 2226 2185 2157 2150 2149 2157 2173 2184 2208 2239 2261 2271 2271 2275 2264 2241 2222 2206 2203 2195 2188 2199 2220 2244 2252 2244 2232 2222 2201 2152 2072 2040 1997 1945 1914 1877 1856 1852 1861 1867 1870 1880 1888 1898 1910 1918 1921 1926 1932 1938 1944 1952 1954 1957 1962 1965 1964 1966 1967 1969 1971 1969 1967 1968 1975 1988 2006 2029 2054 2087 2130 2179 2225 2272 2322 2369 2406 2445 2477 2500 2515 2523 2532 2537 2541 2539 2512 2475 2442 2424 2416 2401 2396 2393 2384 2374 2368 2357 2350 2349 2350 2352 2350 2321 2297 2281 2272 2262 2252 2237 2222 2204 2183 2167 2153 2140 2122 2104 2078 2044 2027 2017 2007 1989 1964 1929 1898 1864 1824 1798 1773 1752 1737 1717 1694 1661 1642 1618 1598 1589 1575 1541 1508 1469 1430 1393 1350 1314 1288 1258 1236 1210 1189 1157 1118 1091 1074 1067 1059 1056 1058 1062 1064 1079 1112 1154 1200 1236 1252 1238 1212 1188 1169 1150 1120 1127 1161 1181 1193 1200 1209 1223 1238 1240 1252 1276 1305 1332 1361 1382 1399 1426 1468 1503 1549 1587 1620 1656 1699 1720 1733 1750 1765 1778 1800 1821 1835 1844 1851 1862 1874 1885 1890 1894 1911 1929 1937 1958 1994 2029 2062 2091 2132 2172 2210 2238 2246 2232 2231 2254 2288 2308 2319 2330 2344 2360 2370 2378 2384 2389 2392 2396 2394 2395 2403 2415 2425 2434 2446 2453 2455 2457 2459 2463 2463 2453 2440 2417 2404 2393 2380 2362 2346 2329 2314 2301 2287 2273 2263 2254 2247 2237 2222 2209 2202 2200 2206 2242 2291 2335 2387 2430 2459 2466 2467 2484
3188 3195 3201 3205 3203 3187 3179 3175 3170 3185 3266 3347 3400 3444 3497 3534 3510 3442 3375 3302 3258 3231 3206 3185 3163 3139 3106 3092 3082 3069 3074 3072 3066 3104 3113 3128 3153 3139 3138 3162 3199 3209 3160 3127 3116 3146 3158 3134 3078 3051 3059 3051 3017 2962 2950 3009 3062 3054 3039 3083 3081 3070 3043 3027 3005 2970 2935 2918 2880 2855 2822 2774 2728 2692 2649 2610 2552 2512 2465 2444 2407 2374 2325 2270 2260 2248 2239 2232 2216 2196 2178 2177 2189 2239 2281 2280 2272 2241 2193 2150 2115 2103 2094 2102 2112 2126 2161 2190 2208 2221 2227 2225 2208 2194 2193 2182 2164 2165 2186 2212 2226 2223 2208 2191 2172 2143 2091 2046 2013 1971 1925 1881 1852 1858 1863 1864 1864 1866 1878 1889 1898 1910 1917 1919 1924 1926 1929 1933 1936 1940 1943 1945 1948 1950 1953 1953 1953 1957 1958 1962 1977 1998 2011 2029 2054 2073 2106 2148 2192 2239 2299 2341 2380 2419 2454 2476 2490 2497 2500 2500 2497 2481 2471 2445 2413 2397 2383 2370 2355 2347 2345 2336 2331 2328 2329 2332 2335 2335 2332 2325 2312 2297 2284 2270 2251 2232 2216 2199 2180 2165 2155 2151 2143 2127 2111 2081 2045 2014 1992 1983 1962 1942 1922 1897 1867 1832 1800 1761 1728 1702 1685 1663 1634 1608 1590 1571 1551 1524 1494 1467 1433 1406 1385 1339 1300 1268 1242 1220 1184 1154 1124 1090 1071 1065 1061 1057 1054 1055 1058 1072 1105 1152 1195 1228 1246 1233 1201 1181 1154 1122 1106 1119 1149 1172 1185 1191 1200 1209 1219 1228 1241 1259 1274 1299 1328 1368 1395 1411 1438 1473 1511 1556 1594 1633 1667 1700 1716 1741 1757 1773 1793 1817 1845 1873 1886 1902 1916 1920 1928 1941 1955 1968 1984 2002 2002 2019 2051 2098 2131 2174 2207 2231 2258 2286 2299 2305 2306 2305 2310 2320 2329 2346 2359 2366 2373 2377 2381 2388 2394 2397 2399 2407 2420 2430 2441 2447 2445 2443 2444 2439 2437 2429 2414 2395 2373 2353 2345 2331 2313 2293 2277 2267 2253 2238 2220 2209 2195 2186 2178 2172 2169 2184 2207 2251 2302 2335 2370 2408 2445 2475 2497 2513 2525
3126 3139 3149 3164 3166 3128 3123 3124 3124 3136 3203 3281 3334 3396 3446 3496 3529 3516 3460 3395 3356 3274 3239 3233 3219 3197 3168 3142 3127 3123 3158 3180 3209 3210 3226 3242 3210 3184 3170 3180 3191 3147 3085 3075 3066 3088 3153 3163 3131 3118 3102 3087 3046 3005 2996 3023 3063 3090 3064 3029 3014 2997 2990 2995 3007 3030 3033 3005 2961 2930 2889 2846 2809 2759 2716 2674 2654 2613 2567 2523 2474 2434 2403 2372 2324 2283 2255 2246 2230 2212 2188 2167 2152 2155 2205 2244 2252 2250 2226 2187 2138 2112 2083 2062 2055 2066 2089 2112 2135 2151 2165 2176 2166 2162 2177 2150 2128 2148 2179 2202 2202 2184 2173 2160 2131 2090 2049 2010 1969 1940 1898 1857 1850 1857 1857 1859 1860 1866 1878 1890 1899 1906 1912 1912 1914 1914 1915 1918 1918 1922 1927 1927 1934 1941 1944 1947 1953 1960 1971 1989 2005 2023 2043 2063 2084 2106 2151 2196 2234 2264 2312 2355 2403 2443 2468 2481 2483 2482 2476 2468 2460 2443 2418 2382 2362 2360 2350 2331 2318 2309 2298 2293 2293 2297 2301 2300 2295 2293 2295 2298 2296 2286 2276 2254 2225 2206 2197 2186 2164 2154 2150 2144 2135 2123 2099 2073 2039 2012 1986 1959 1932 1921 1910 1887 1854 1825 1795 1770 1740 1702 1662 1629 1607 1575 1547 1529 1519 1497 1469 1435 1405 1369 1357 1339 1299 1252 1226 1193 1159 1127 1094 1077 1067 1058 1056 1054 1052 1059 1077 1111 1150 1187 1222 1239 1232 1200 1174 1147 1105 1107 1144 1179 1194 1196 1201 1196 1197 1205 1220 1240 1271 1297 1307 1303 1310 1346 1382 1411 1440 1470 1508 1552 1588 1622 1651 1678 1702 1729 1753 1781 1807 1843 1878 1903 1921 1936 1945 1957 1977 1995 2006 2021 2038 2051 2053 2063 2087 2119 2166 2204 2238 2262 2292 2308 2312 2311 2309 2313 2321 2330 2338 2349 2356 2364 2378 2386 2390 2397 2402 2405 2410 2415 2421 2428 2425 2415 2405 2400 2398 2398 2394 2380 2363 2344 2325 2307 2294 2282 2268 2247 2233 2216 2195 2173 2158 2147 2139 2136 2133 2147 2184 2237 2271 2309 2346 2383 2409 2437 2462 2495 2530 2554 2572
3066 3080 3096 3119 3101 3070 3060 3063 3073 3105 3156 3203 3276 3311 3373 3434 3473 3498 3513 3472 3422 3359 3331 3327 3329 3306 3257 3247 3235 3249 3271 3293 3297 3296 3285 3248 3182 3154 3144 3149 3145 3083 3057 3038 3026 3031 3076 3110 3113 3110 3093 3078 2997 2951 2921 2915 2962 3006 3014 2988 2960 2942 2933 2929 2934 2953 2986 2996 2996 2983 2962 2919 2883 2839 2788 2759 2728 2680 2643 2586 2496 2429 2399 2382 2366 2335 2315 2296 2288 2268 2239 2212 2180 2145 2134 2166 2211 2222 2219 2206 2182 2154 2113 2074 2042 2023 2031 2044 2070 2099 2106 2116 2114 2130 2147 2132 2105 2134 2166 2168 2162 2149 2125 2097 2069 2039 2010 1969 1922 1887 1851 1837 1841 1846 1850 1851 1857 1869 1877 1885 1890 1896 1899 1901 1903 1903 1902 1900 1899 1906 1914 1927 1941 1947 1959 1974 1984 1993 2002 2013 2031 2052 2077 2102 2128 2157 2199 2234 2263 2303 2342 2402 2442 2462 2471 2472 2461 2450 2446 2435 2420 2383 2336 2322 2326 2327 2322 2302 2285 2271 2263 2262 2265 2265 2265 2258 2255 2262 2273 2277 2269 2253 2238 2220 2196 2187 2184 2170 2160 2154 2145 2136 2117 2098 2073 2045 2014 1993 1976 1938 1900 1880 1869 1848 1822 1809 1782 1751 1725 1698 1667 1639 1601 1552 1507 1478 1460 1449 1437 1423 1386 1338 1316 1305 1279 1234 1206 1169 1137 1107 1078 1065 1058 1052 1053 1055 1067 1097 1129 1166 1193 1225 1244 1226 1199 1172 1135 1101 1113 1160 1200 1222 1224 1213 1199 1200 1206 1218 1237 1260 1281 1300 1320 1334 1325 1319 1348 1381 1414 1446 1485 1530 1564 1587 1612 1639 1666 1701 1740 1780 1824 1860 1893 1923 1941 1954 1970 1988 2013 2035 2051 2071 2094 2111 2120 2125 2134 2152 2191 2231 2268 2288 2302 2308 2309 2310 2311 2318 2324 2332 2339 2348 2357 2377 2396 2399 2401 2406 2406 2405 2409 2408 2407 2402 2391 2380 2369 2362 2346 2346 2337 2320 2306 2290 2275 2259 2244 2234 2220 2202 2180 2156 2135 2116 2109 2104 2103 2113 2142 2194 2243 2291 2326 2362 2395 2425 2457 2483 2510 2538 2557 2586 2612
3012 3036 3058 3078 3051 3026 3009 3009 3033 3081 3138 3160 3200 3233 3284 3346 3386 3444 3474 3459 3420 3396 3405 3390 3373 3346 3307 3305 3330 3348 3337 3299 3280 3264 3241 3195 3153 3122 3102 3078 3071 3053 3034 3007 2984 2982 3021 3085 3082 3065 3065 3049 2993 2923 2884 2871 2878 2913 2952 2956 2926 2910 2901 2894 2892 2893 2901 2914 2934 2951 2975 2992 2971 2918 2871 2833 2772 2699 2651 2595 2490 2402 2377 2355 2341 2329 2304 2279 2264 2249 2228 2215 2211 2187 2151 2118 2129 2167 2182 2191 2181 2157 2124 2088 2048 2011 1998 1999 2006 2031 2048 2053 2062 2089 2099 2086 2059 2089 2119 2122 2111 2081 2059 2041 2023 1995 1969 1918 1871 1844 1825 1825 1832 1836 1839 1844 1851 1860 1868 1873 1878 1887 1892 1893 1894 1893 1889 1883 1890 1906 1927 1942 1953 1970 1990 2011 2024 2025 2025 2036 2056 2081 2115 2142 2177 2202 2233 2268 2307 2351 2391 2427 2449 2454 2455 2446 2432 2414 2400 2378 2343 2305 2290 2294 2301 2310 2300 2279 2263 2253 2246 2244 2244 2242 2239 2239 2242 2242 2245 2241 2229 2216 2204 2183 2171 2170 2171 2158 2140 2130 2121 2102 2079 2060 2038 2011 1986 1969 1943 1891 1852 1818 1803 1781 1771 1771 1744 1719 1700 1679 1647 1625 1594 1551 1503 1448 1412 1385 1382 1378 1368 1334 1296 1274 1253 1218 1187 1154 1122 1096 1070 1059 1056 1051 1054 1070 1106 1145 1172 1192 1209 1226 1218 1185 1159 1121 1090 1116 1161 1207 1229 1230 1217 1201 1199 1205 1223 1237 1256 1284 1304 1329 1358 1370 1377 1363 1344 1344 1368 1394 1429 1475 1506 1534 1563 1594 1621 1657 1705 1760 1813 1848 1891 1930 1954 1977 2007 2027 2048 2067 2083 2106 2128 2149 2167 2182 2195 2214 2235 2265 2285 2291 2297 2306 2312 2315 2319 2322 2329 2336 2343 2353 2368 2382 2392 2396 2401 2397 2395 2394 2386 2382 2378 2373 2362 2351 2333 2316 2293 2286 2280 2266 2251 2240 2223 2211 2197 2181 2162 2142 2119 2098 2088 2089 2094 2099 2118 2148 2187 2230 2277 2335 2373 2411 2444 2472 2496 2523 2552 2569 2586 2620 2643
2960 3014 3040 3033 3010 2981 2974 2972 2977 3045 3108 3132 3156 3170 3189 3248 3322 3383 3426 3411 3361 3344 3345 3339 3327 3310 3320 3330 3340 3332 3317 3274 3235 3218 3202 3180 3145 3107 3082 3059 3042 3025 3009 2984 2955 2943 2973 3076 3078 3044 3030 3017 2994 2928 2879 2849 2844 2852 2855 2885 2896 2887 2880 2870 2865 2866 2866 2871 2876 2880 2896 2948 2983 2970 2931 2872 2788 2680 2638 2609 2491 2373 2357 2332 2294 2282 2275 2246 2223 2209 2201 2197 2192 2182 2176 2148 2112 2093 2096 2125 2142 2140 2120 2089 2057 2019 1985 1967 1970 1985 1994 2000 2023 2040 2040 2036 2022 2034 2058 2064 2037 2020 2006 1989 1964 1938 1909 1860 1828 1814 1811 1817 1823 1827 1831 1830 1838 1851 1857 1862 1871 1878 1882 1884 1884 1885 1886 1896 1911 1930 1951 1968 1986 2007 2035 2059 2079 2081 2076 2083 2094 2120 2161 2196 2224 2243 2273 2310 2349 2378 2399 2414 2426 2425 2410 2391 2367 2351 2322 2289 2272 2272 2266 2274 2281 2285 2285 2276 2261 2252 2242 2236 2233 2234 2229 2223 2216 2208 2207 2201 2198 2191 2177 2164 2156 2143 2138 2122 2096 2081 2074 2055 2032 2021 2004 1980 1964 1943 1915 1864 1817 1773 1731 1705 1696 1705 1694 1677 1662 1644 1619 1593 1561 1532 1501 1465 1417 1374 1342 1330 1316 1316 1299 1260 1227 1192 1164 1135 1116 1095 1068 1055 1057 1060 1064 1089 1124 1145 1152 1173 1195 1191 1163 1131 1101 1071 1103 1155 1202 1227 1225 1213 1202 1201 1209 1227 1242 1261 1287 1315 1347 1376 1400 1413 1419 1422 1415 1398 1385 1388 1402 1425 1452 1473 1509 1539 1577 1617 1674 1719 1769 1808 1858 1906 1952 2002 2034 2058 2077 2096 2109 2123 2143 2167 2190 2214 2241 2255 2267 2278 2286 2291 2294 2303 2313 2320 2323 2327 2332 2338 2349 2361 2376 2382 2383 2386 2383 2381 2376 2366 2356 2355 2351 2345 2328 2306 2284 2265 2242 2227 2219 2210 2198 2188 2170 2154 2136 2121 2102 2085 2073 2080 2092 2109 2113 2132 2170 2194 2223 2276 2312 2365 2409 2449 2486 2514 2543 2562 2585 2606 2623 2645 2674
2895 2957 2982 2960 2937 2930 2934 2939 2965 3042 3083 3077 3106 3115 3137 3181 3256 3316 3374 3379 3337 3318 3304 3298 3282 3275 3266 3266 3270 3257 3250 3222 3186 3179 3176 3162 3134 3100 3064 3041 3011 2983 2965 2940 2920 2917 2960 3065 3055 3030 3006 2991 2971 2931 2884 2845 2820 2808 2811 2820 2834 2839 2840 2840 2847 2850 2847 2848 2852 2851 2857 2888 2945 2939 2918 2867 2788 2682 2629 2593 2453 2370 2331 2297 2261 2237 2231 2219 2199 2183 2166 2154 2145 2141 2143 2165 2167 2129 2088 2057 2067 2084 2088 2080 2049 2014 1978 1952 1938 1940 1943 1956 1980 1984 1981 1973 1968 1980 1992 1989 1971 1960 1946 1922 1897 1879 1856 1822 1798 1790 1797 1805 1811 1817 1812 1815 1826 1835 1844 1853 1863 1873 1881 1893 1901 1912 1926 1940 1956 1981 2004 2014 2028 2049 2075 2100 2121 2133 2141 2140 2145 2172 2201 2229 2254 2283 2313 2340 2357 2367 2376 2386 2386 2380 2347 2316 2294 2273 2257 2248 2245 2247 2246 2256 2265 2271 2277 2265 2255 2245 2231 2226 2219 2206 2193 2183 2176 2165 2164 2174 2178 2176 2167 2159 2133 2098 2075 2050 2030 2024 2021 2009 1997 1987 1974 1957 1936 1918 1888 1839 1786 1739 1691 1651 1629 1632 1630 1604 1603 1601 1581 1560 1531 1502 1477 1455 1429 1399 1355 1311 1280 1279 1277 1260 1216 1179 1145 1125 1107 1090 1065 1054 1055 1062 1070 1088 1099 1111 1121 1145 1156 1132 1107 1073 1069 1101 1149 1191 1219 1218 1205 1197 1200 1206 1226 1247 1265 1293 1315 1342 1377 1412 1437 1453 1471 1485 1490 1483 1475 1484 1476 1473 1475 1474 1482 1516 1546 1586 1634 1676 1712 1764 1811 1859 1920 1974 2028 2057 2078 2098 2114 2132 2154 2181 2210 2230 2245 2255 2265 2274 2282 2289 2296 2302 2309 2315 2320 2327 2333 2346 2359 2369 2372 2367 2362 2359 2355 2349 2345 2339 2334 2325 2320 2302 2275 2245 2225 2207 2187 2165 2155 2145 2132 2119 2106 2095 2081 2071 2066 2069 2077 2093 2108 2130 2154 2187 2226 2264 2286 2337 2358 2394 2431 2474 2516 2549 2575 2597 2611 2631 2654 2679 2703
2851 2898 2903 2893 2886 2894 2900 2906 2941 3026 3051 3061 3068 3077 3099 3133 3174 3263 3318 3348 3340 3312 3295 3278 3258 3235 3222 3214 3210 3198 3183 3150 3129 3129 3127 3128 3118 3089 3052 3028 2981 2944 2921 2903 2890 2894 2915 2994 3035 3014 2991 2968 2944 2920 2893 2858 2822 2800 2788 2781 2783 2795 2803 2816 2820 2824 2828 2828 2831 2830 2835 2864 2909 2913 2884 2816 2735 2667 2607 2548 2437 2366 2313 2274 2235 2212 2198 2186 2163 2141 2123 2103 2095 2101 2120 2144 2171 2175 2162 2120 2049 2009 2027 2043 2035 2008 1971 1935 1914 1905 1910 1915 1922 1925 1926 1919 1913 1917 1922 1920 1908 1889 1881 1859 1829 1811 1800 1781 1772 1780 1787 1797 1805 1799 1795 1803 1816 1834 1855 1872 1890 1905 1918 1928 1939 1958 1977 1998 2012 2025 2038 2052 2063 2079 2098 2128 2149 2166 2178 2184 2201 2217 2234 2258 2283 2305 2319 2326 2327 2332 2334 2337 2331 2300 2278 2250 2227 2221 2216 2212 2210 2212 2220 2231 2236 2243 2239 2232 2227 2220 2211 2202 2186 2166 2150 2140 2135 2125 2125 2145 2149 2146 2133 2120 2099 2062 2034 1994 1974 1969 1976 1971 1968 1960 1943 1929 1912 1894 1866 1831 1791 1754 1697 1636 1583 1555 1542 1528 1539 1553 1545 1520 1501 1471 1452 1432 1411 1391 1362 1324 1284 1249 1241 1230 1204 1165 1133 1113 1099 1077 1064 1053 1050 1058 1072 1080 1085 1091 1101 1106 1096 1079 1073 1089 1122 1143 1166 1194 1198 1194 1199 1204 1210 1223 1252 1274 1292 1320 1354 1390 1421 1449 1474 1499 1526 1545 1549 1552 1556 1559 1566 1566 1556 1546 1532 1527 1536 1552 1583 1620 1661 1711 1764 1807 1866 1928 1984 2033 2060 2084 2107 2130 2158 2186 2207 2227 2242 2252 2263 2271 2276 2279 2285 2292 2299 2303 2310 2323 2332 2339 2346 2349 2344 2338 2336 2333 2325 2316 2314 2304 2295 2282 2259 2233 2203 2177 2158 2135 2121 2106 2094 2082 2075 2063 2058 2058 2061 2066 2074 2081 2095 2117 2145 2183 2219 2246 2266 2298 2329 2363 2391 2417 2449 2499 2548 2591 2611 2632 2646 2658 2682 2706 2728
2816 2837 2860 2856 2858 2863 2869 2892 2948 3005 3038 3037 3026 3037 3068 3093 3137 3206 3259 3307 3306 3296 3287 3267 3246 3220 3195 3177 3163 3149 3130 3104 3085 3075 3068 3065 3057 3045 3026 2998 2950 2907 2884 2874 2867 2879 2891 2902 2980 2984 2961 2940 2918 2898 2877 2857 2829 2805 2776 2759 2753 2759 2772 2788 2794 2799 2804 2805 2806 2809 2811 2834 2868 2884 2838 2770 2697 2648 2582 2488 2405 2354 2301 2259 2218 2179 2155 2140 2128 2102 2076 2064 2061 2070 2091 2109 2130 2147 2153 2147 2116 2057 1995 1964 1962 1957 1938 1912 1894 1882 1879 1875 1875 1878 1865 1853 1855 1852 1854 1849 1831 1829 1825 1800 1772 1757 1754 1752 1761 1770 1784 1793 1790 1782 1780 1794 1832 1865 1897 1914 1936 1958 1972 1982 2003 2018 2036 2047 2059 2070 2081 2095 2103 2119 2137 2157 2172 2192 2208 2227 2244 2264 2278 2292 2302 2299 2299 2293 2281 2273 2265 2251 2241 2225 2212 2199 2191 2182 2175 2173 2178 2187 2195 2204 2211 2218 2217 2207 2199 2190 2182 2172 2160 2143 2122 2104 2090 2084 2077 2082 2094 2088 2075 2065 2052 2033 2005 1965 1928 1918 1926 1923 1924 1917 1907 1896 1879 1863 1836 1804 1776 1746 1693 1630 1559 1516 1476 1464 1473 1485 1478 1467 1455 1427 1417 1404 1382 1359 1331 1308 1280 1252 1222 1194 1176 1147 1117 1100 1093 1081 1060 1046 1047 1056 1069 1075 1078 1078 1064 1062 1081 1101 1127 1148 1152 1157 1168 1181 1187 1193 1201 1214 1227 1248 1275 1303 1337 1377 1405 1434 1459 1491 1517 1543 1565 1586 1600 1612 1629 1633 1637 1639 1627 1615 1608 1598 1596 1592 1581 1581 1621 1665 1710 1757 1816 1879 1943 1990 2028 2053 2075 2107 2140 2169 2199 2224 2239 2249 2259 2266 2270 2275 2279 2282 2288 2299 2308 2317 2320 2319 2322 2318 2316 2311 2304 2295 2279 2267 2259 2249 2235 2214 2187 2164 2144 2117 2098 2084 2061 2049 2036 2034 2033 2036 2048 2063 2077 2086 2096 2116 2143 2175 2216 2241 2255 2276 2295 2319 2347 2379 2412 2444 2481 2532 2582 2632 2656 2671 2680 2684 2699 2718 2740
2783 2814 2832 2823 2828 2834 2845 2882 2942 2986 3004 2997 2987 3003 3041 3078 3110 3151 3203 3292 3284 3266 3259 3245 3223 3194 3174 3146 3126 3114 3099 3079 3054 3041 3023 3009 3003 2991 2978 2955 2914 2865 2842 2837 2838 2857 2867 2873 2892 2950 2935 2909 2889 2873 2857 2839 2819 2791 2759 2738 2728 2729 2741 2757 2765 2773 2776 2779 2785 2789 2792 2816 2843 2833 2783 2720 2672 2629 2540 2474 2408 2357 2298 2246 2203 2146 2116 2100 2092 2068 2047 2037 2035 2044 2050 2060 2078 2095 2104 2112 2111 2106 2093 2034 1967 1913 1885 1875 1862 1858 1845 1838 1828 1819 1799 1793 1772 1761 1778 1788 1789 1787 1768 1744 1722 1716 1726 1738 1754 1769 1779 1777 1773 1770 1778 1814 1860 1897 1940 1963 1989 2008 2019 2032 2054 2074 2097 2116 2117 2122 2127 2134 2141 2157 2170 2191 2211 2231 2255 2271 2280 2291 2302 2301 2291 2278 2260 2242 2208 2198 2191 2187 2181 2170 2169 2162 2158 2154 2155 2161 2168 2174 2176 2189 2198 2207 2200 2186 2176 2169 2165 2162 2162 2150 2121 2091 2054 2034 2030 2020 2015 2017 2015 2007 2002 1991 1969 1937 1901 1865 1863 1870 1878 1874 1869 1861 1844 1821 1797 1768 1735 1710 1662 1600 1533 1481 1424 1391 1394 1403 1403 1398 1389 1373 1374 1367 1343 1320 1297 1277 1255 1228 1203 1177 1152 1132 1108 1091 1082 1075 1058 1045 1042 1051 1066 1074 1073 1061 1058 1091 1119 1141 1153 1160 1167 1173 1182 1187 1188 1195 1204 1220 1239 1273 1303 1341 1381 1415 1447 1480 1509 1534 1558 1589 1614 1635 1655 1678 1698 1700 1698 1699 1701 1697 1683 1669 1660 1647 1634 1613 1616 1642 1676 1710 1763 1834 1895 1947 1979 2008 2044 2077 2110 2149 2184 2211 2226 2234 2243 2253 2262 2272 2277 2281 2286 2290 2289 2291 2283 2280 2276 2279 2269 2255 2244 2233 2220 2202 2191 2177 2164 2144 2121 2101 2088 2066 2049 2030 2017 2017 2025 2027 2034 2045 2059 2083 2103 2122 2140 2176 2206 2231 2247 2270 2293 2312 2327 2351 2371 2395 2424 2458 2492 2541 2592 2642 2675 2696 2697 2695 2715 2742 2775
2769 2801 2802 2792 2794 2799 2820 2883 2924 2947 2952 2938 2943 2964 2986 3026 3066 3117 3200 3263 3255 3240 3230 3208 3184 3166 3145 3116 3092 3081 3072 3056 3035 3019 3000 2986 2977 2958 2941 2923 2884 2823 2807 2804 2811 2831 2843 2844 2845 2871 2917 2894 2864 2845 2830 2811 2791 2766 2736 2715 2709 2712 2720 2728 2739 2748 2753 2756 2760 2765 2772 2786 2809 2794 2736 2697 2649 2578 2513 2449 2396 2350 2295 2226 2184 2117 2083 2071 2062 2044 2020 2012 2008 2012 2009 2009 2024 2036 2049 2046 2049 2057 2060 2053 2027 1999 1939 1885 1859 1844 1822 1790 1765 1741 1740 1730 1708 1712 1725 1750 1744 1720 1696 1689 1694 1707 1721 1737 1753 1760 1761 1761 1760 1763 1788 1829 1882 1934 1981 2005 2022 2028 2047 2070 2100 2127 2144 2155 2162 2167 2167 2173 2182 2195 2214 2231 2249 2275 2286 2283 2287 2293 2287 2266 2246 2223 2196 2168 2155 2149 2142 2134 2130 2132 2136 2137 2132 2130 2140 2146 2150 2155 2160 2171 2181 2184 2175 2168 2165 2163 2169 2170 2175 2160 2132 2095 2047 2006 1976 1953 1945 1944 1943 1946 1948 1941 1923 1899 1857 1813 1805 1824 1837 1835 1828 1820 1803 1779 1761 1736 1702 1663 1620 1571 1512 1465 1416 1362 1326 1324 1330 1323 1316 1308 1312 1315 1302 1287 1267 1240 1217 1195 1177 1156 1137 1119 1100 1091 1084 1073 1060 1047 1042 1052 1065 1068 1053 1058 1088 1108 1126 1145 1158 1169 1182 1188 1194 1194 1190 1195 1215 1244 1275 1316 1347 1378 1413 1452 1490 1525 1556 1585 1609 1633 1663 1686 1709 1734 1750 1755 1757 1759 1768 1779 1784 1772 1753 1725 1697 1667 1637 1644 1674 1703 1733 1786 1851 1897 1934 1972 2016 2053 2095 2134 2165 2189 2205 2215 2223 2233 2242 2248 2250 2250 2251 2255 2252 2246 2226 2213 2208 2205 2195 2185 2168 2164 2152 2136 2125 2113 2101 2080 2061 2047 2034 2019 2007 2006 2012 2025 2036 2046 2056 2069 2101 2132 2163 2185 2203 2219 2253 2276 2297 2310 2333 2356 2376 2389 2406 2428 2458 2482 2508 2554 2606 2648 2691 2719 2720 2723 2749 2773 2769
2745 2770 2763 2757 2761 2770 2798 2845 2874 2873 2886 2903 2915 2923 2944 2984 3046 3126 3223 3249 3231 3206 3189 3166 3147 3130 3112 3088 3068 3051 3040 3023 3009 2991 2975 2964 2951 2930 2910 2891 2858 2805 2784 2780 2787 2799 2809 2808 2809 2813 2848 2888 2854 2824 2801 2782 2759 2742 2723 2697 2695 2693 2696 2701 2707 2714 2722 2723 2726 2736 2747 2752 2769 2763 2716 2663 2611 2555 2497 2440 2398 2345 2283 2213 2157 2097 2064 2045 2040 2027 1999 1986 1982 1979 1974 1973 1981 1976 1982 1989 2002 2011 2013 2015 2005 1991 1960 1919 1896 1853 1810 1759 1721 1691 1688 1680 1656 1667 1691 1695 1674 1656 1660 1673 1690 1707 1719 1729 1737 1742 1751 1762 1772 1787 1816 1855 1916 1960 2000 2026 2037 2053 2081 2112 2137 2153 2167 2178 2189 2198 2206 2218 2231 2240 2252 2270 2283 2285 2278 2270 2270 2270 2248 2227 2212 2181 2151 2134 2122 2110 2100 2093 2095 2099 2102 2103 2100 2105 2110 2117 2127 2136 2144 2152 2159 2164 2162 2164 2170 2186 2196 2189 2180 2160 2138 2104 2062 2016 1972 1931 1898 1882 1872 1882 1882 1875 1865 1842 1804 1760 1755 1781 1794 1797 1789 1772 1757 1742 1726 1698 1669 1633 1597 1555 1517 1479 1433 1373 1319 1283 1266 1258 1248 1242 1246 1260 1264 1248 1227 1205 1184 1167 1153 1137 1125 1111 1099 1090 1079 1070 1058 1047 1042 1050 1056 1046 1052 1079 1098 1113 1130 1149 1165 1178 1196 1202 1200 1200 1201 1212 1246 1286 1323 1356 1385 1416 1451 1485 1523 1566 1599 1623 1651 1680 1710 1733 1755 1774 1791 1806 1817 1825 1833 1843 1849 1856 1843 1812 1767 1720 1680 1658 1683 1719 1744 1776 1819 1872 1912 1960 2007 2053 2091 2126 2150 2168 2183 2193 2198 2204 2202 2206 2207 2210 2211 2207 2195 2181 2163 2153 2144 2137 2126 2116 2108 2096 2089 2080 2074 2061 2047 2028 2014 2001 2000 2000 2005 2013 2023 2037 2058 2076 2101 2128 2161 2188 2209 2233 2251 2269 2301 2330 2355 2371 2384 2415 2435 2448 2456 2475 2492 2528 2563 2599 2645 2693 2732 2762 2774 2779 2776 2749 2737
2709 2717 2723 2725 2735 2749 2771 2787 2797 2824 2848 2868 2882 2895 2927 2976 3066 3185 3248 3251 3198 3172 3154 3132 3116 3101 3080 3054 3037 3020 3006 2993 2981 2964 2949 2933 2915 2900 2876 2853 2827 2785 2762 2755 2764 2768 2772 2777 2776 2779 2792 2835 2848 2805 2773 2749 2721 2699 2682 2667 2670 2674 2674 2679 2683 2685 2685 2681 2687 2702 2711 2714 2727 2728 2697 2648 2590 2538 2492 2430 2384 2330 2281 2229 2149 2104 2065 2036 2019 2009 1982 1970 1963 1959 1956 1955 1960 1949 1946 1950 1959 1964 1965 1969 1968 1922 1895 1864 1839 1813 1783 1750 1704 1672 1653 1629 1623 1640 1641 1629 1621 1630 1644 1658 1674 1693 1709 1724 1746 1767 1786 1796 1806 1823 1861 1899 1939 1980 2012 2035 2057 2090 2120 2144 2168 2186 2198 2206 2224 2242 2256 2263 2269 2282 2287 2291 2284 2275 2262 2249 2246 2237 2218 2200 2182 2153 2126 2102 2084 2071 2065 2061 2067 2066 2065 2069 2079 2092 2095 2102 2117 2125 2132 2139 2150 2159 2170 2189 2205 2201 2193 2177 2162 2145 2122 2081 2049 2020 1998 1958 1910 1858 1819 1811 1809 1805 1797 1774 1754 1732 1708 1723 1741 1753 1747 1734 1722 1705 1679 1655 1630 1604 1579 1546 1502 1460 1426 1387 1348 1303 1264 1234 1210 1197 1198 1209 1224 1210 1189 1171 1158 1143 1132 1123 1115 1097 1084 1083 1068 1061 1051 1039 1036 1037 1035 1053 1083 1100 1112 1125 1136 1149 1162 1177 1190 1197 1200 1206 1220 1251 1293 1328 1359 1388 1423 1458 1491 1528 1565 1599 1629 1667 1698 1727 1754 1778 1800 1816 1832 1850 1862 1874 1885 1895 1898 1891 1872 1842 1808 1775 1742 1709 1687 1698 1729 1765 1802 1845 1892 1943 1989 2035 2079 2114 2131 2144 2157 2165 2170 2170 2165 2164 2164 2160 2159 2142 2128 2118 2099 2085 2082 2071 2066 2063 2053 2048 2033 2023 2014 1999 1992 1988 1984 1986 2001 2007 2020 2036 2049 2071 2099 2124 2147 2170 2204 2227 2248 2272 2296 2316 2335 2360 2391 2414 2439 2460 2490 2517 2527 2543 2560 2582 2612 2650 2693 2731 2756 2776 2788 2793 2760 2716 2707
2670 2672 2680 2694 2705 2715 2725 2747 2778 2808 2824 2844 2873 2905 2949 3019 3118 3209 3226 3186 3154 3141 3122 3104 3087 3068 3048 3029 3011 2991 2983 2967 2952 2936 2918 2904 2887 2875 2853 2825 2798 2761 2737 2732 2734 2741 2743 2740 2740 2739 2743 2777 2822 2789 2746 2711 2675 2652 2636 2630 2633 2637 2646 2661 2668 2666 2657 2646 2652 2666 2676 2684 2698 2712 2695 2670 2633 2586 2532 2484 2424 2369 2314 2258 2189 2104 2056 2022 1996 1991 1973 1956 1941 1937 1934 1934 1937 1929 1917 1918 1919 1913 1910 1920 1875 1838 1815 1804 1779 1757 1736 1723 1708 1653 1589 1588 1596 1607 1601 1582 1596 1616 1653 1691 1722 1740 1758 1780 1802 1819 1835 1847 1866 1886 1912 1939 1971 2007 2038 2066 2100 2131 2165 2191 2210 2230 2240 2248 2260 2277 2291 2304 2306 2303 2291 2279 2269 2259 2238 2224 2211 2196 2179 2155 2138 2120 2095 2068 2052 2054 2047 2040 2044 2042 2045 2054 2066 2073 2082 2095 2109 2121 2134 2145 2161 2176 2196 2206 2203 2190 2175 2159 2141 2113 2085 2049 2028 2007 1984 1948 1906 1853 1802 1764 1747 1730 1722 1710 1704 1680 1660 1661 1682 1696 1703 1699 1683 1659 1637 1617 1590 1563 1541 1518 1470 1428 1391 1357 1335 1312 1286 1251 1222 1197 1170 1167 1180 1176 1163 1147 1135 1126 1118 1109 1092 1078 1070 1064 1053 1046 1038 1030 1021 1024 1047 1074 1094 1109 1118 1130 1142 1151 1163 1174 1185 1197 1210 1232 1267 1303 1337 1365 1397 1429 1462 1503 1539 1574 1608 1638 1673 1706 1733 1762 1793 1817 1833 1852 1871 1892 1909 1923 1925 1924 1922 1915 1908 1894 1871 1842 1810 1776 1736 1706 1713 1751 1784 1812 1851 1903 1961 2012 2058 2094 2109 2122 2131 2135 2136 2133 2127 2123 2115 2104 2095 2083 2063 2051 2039 2022 2015 2008 2006 2008 1999 1991 1982 1970 1975 1977 1986 1993 2003 2008 2020 2029 2048 2069 2096 2120 2154 2201 2210 2230 2248 2269 2288 2319 2343 2362 2378 2400 2428 2458 2483 2503 2534 2560 2585 2609 2612 2616 2644 2687 2705 2712 2721 2727 2738 2740 2716 2678 2658
2626 2630 2641 2657 2676 2698 2722 2744 2764 2782 2803 2834 2888 2948 3005 3088 3169 3207 3180 3144 3113 3098 3086 3067 3049 3033 3018 3002 2984 2968 2961 2941 2923 2907 2888 2874 2859 2843 2821 2789 2761 2727 2709 2704 2708 2711 2710 2710 2701 2698 2698 2712 2768 2760 2713 2675 2639 2615 2601 2592 2594 2594 2611 2645 2658 2657 2648 2635 2630 2634 2644 2661 2676 2686 2685 2670 2637 2592 2531 2485 2450 2407 2307 2248 2172 2109 2053 2007 1977 1968 1963 1945 1930 1921 1916 1915 1916 1912 1899 1887 1873 1857 1850 1834 1793 1777 1769 1745 1719 1701 1696 1699 1690 1610 1571 1577 1570 1566 1567 1583 1615 1672 1716 1745 1764 1778 1793 1816 1839 1856 1881 1907 1929 1944 1959 1981 2006 2037 2066 2097 2142 2175 2208 2232 2245 2256 2265 2278 2297 2310 2320 2320 2310 2297 2282 2266 2252 2240 2219 2192 2166 2147 2123 2095 2086 2079 2054 2042 2048 2049 2041 2033 2028 2030 2043 2055 2063 2073 2089 2104 2121 2135 2146 2153 2171 2191 2196 2190 2184 2171 2152 2129 2097 2070 2047 2025 2004 1977 1954 1923 1886 1841 1804 1761 1738 1709 1685 1665 1645 1623 1603 1606 1628 1636 1647 1649 1638 1619 1598 1573 1544 1521 1506 1488 1450 1414 1376 1340 1306 1277 1263 1249 1226 1198 1174 1152 1139 1140 1138 1132 1121 1111 1098 1084 1073 1064 1055 1046 1035 1031 1022 1013 1015 1039 1063 1086 1101 1114 1125 1137 1149 1163 1175 1181 1195 1215 1243 1271 1307 1338 1368 1408 1437 1470 1506 1541 1578 1612 1644 1676 1710 1743 1769 1788 1806 1837 1862 1889 1912 1931 1941 1939 1935 1933 1934 1942 1939 1930 1930 1913 1885 1845 1797 1757 1728 1734 1767 1792 1824 1862 1918 1979 2030 2067 2080 2087 2090 2094 2091 2082 2081 2072 2061 2049 2026 2013 1998 1987 1979 1961 1955 1953 1956 1954 1949 1950 1954 1967 1981 1997 2007 2017 2029 2035 2049 2070 2098 2132 2151 2187 2216 2247 2275 2294 2304 2323 2337 2372 2410 2424 2445 2469 2497 2524 2545 2573 2595 2622 2663 2682 2685 2702 2712 2718 2689 2673 2665 2667 2677 2674 2655 2632 2623
2586 2591 2607 2629 2661 2689 2705 2725 2744 2775 2813 2874 2957 3026 3083 3184 3241 3218 3151 3120 3081 3063 3051 3035 3018 3002 2984 2967 2952 2943 2932 2912 2896 2881 2858 2845 2826 2805 2779 2757 2715 2687 2672 2666 2672 2671 2671 2671 2664 2659 2659 2664 2698 2701 2673 2642 2606 2584 2577 2570 2565 2566 2584 2617 2635 2640 2638 2628 2618 2614 2620 2631 2640 2648 2655 2649 2618 2562 2511 2469 2428 2364 2299 2235 2159 2101 2044 1998 1961 1951 1949 1939 1921 1912 1908 1902 1897 1890 1872 1845 1825 1815 1785 1758 1745 1736 1719 1691 1673 1673 1677 1660 1612 1548 1556 1557 1560 1571 1590 1622 1664 1715 1763 1779 1790 1806 1831 1849 1870 1889 1909 1934 1951 1965 1982 2011 2048 2075 2098 2134 2174 2208 2236 2255 2276 2289 2296 2314 2326 2330 2319 2311 2302 2290 2270 2249 2231 2213 2181 2145 2118 2091 2072 2054 2046 2029 2028 2037 2041 2036 2030 2020 2017 2024 2041 2049 2060 2077 2091 2101 2115 2129 2141 2153 2167 2168 2159 2158 2157 2144 2121 2086 2057 2039 2020 1995 1967 1941 1919 1894 1871 1843 1814 1785 1767 1745 1722 1694 1657 1607 1570 1558 1570 1579 1589 1599 1591 1574 1549 1525 1508 1490 1472 1447 1415 1377 1342 1328 1299 1260 1230 1213 1201 1182 1166 1152 1129 1110 1108 1106 1101 1095 1079 1068 1053 1040 1030 1026 1021 1015 1006 1006 1031 1055 1078 1089 1101 1110 1122 1140 1158 1172 1190 1205 1220 1258 1285 1311 1342 1374 1411 1443 1472 1510 1551 1595 1629 1652 1678 1712 1749 1782 1808 1824 1831 1847 1878 1912 1933 1941 1939 1935 1932 1930 1933 1945 1945 1938 1945 1944 1928 1897 1855 1812 1770 1734 1738 1768 1796 1827 1874 1930 1986 2024 2036 2047 2053 2048 2039 2025 2014 2005 1987 1970 1959 1951 1937 1930 1921 1915 1923 1934 1940 1948 1951 1960 1973 1987 2003 2018 2033 2045 2057 2070 2092 2119 2148 2169 2202 2237 2272 2291 2315 2331 2350 2367 2396 2433 2466 2504 2525 2544 2579 2603 2629 2651 2675 2702 2730 2749 2759 2757 2737 2704 2658 2634 2617 2614 2609 2602 2592 2584 2578
2550 2562 2577 2601 2622 2646 2669 2697 2729 2773 2860 2937 3006 3075 3166 3215 3214 3189 3122 3089 3057 3033 3014 3000 2989 2974 2953 2937 2924 2910 2892 2875 2863 2847 2826 2803 2782 2762 2736 2714 2672 2650 2637 2628 2629 2627 2627 2625 2627 2624 2623 2625 2636 2647 2634 2609 2578 2564 2564 2560 2552 2557 2569 2590 2611 2621 2622 2616 2605 2599 2602 2604 2606 2612 2619 2619 2592 2537 2502 2450 2404 2343 2276 2205 2137 2072 2026 1988 1958 1933 1928 1928 1914 1900 1889 1876 1869 1858 1836 1808 1798 1775 1741 1722 1700 1689 1677 1654 1647 1645 1620 1587 1537 1541 1561 1578 1591 1615 1641 1678 1721 1760 1793 1815 1829 1846 1870 1887 1905 1915 1935 1956 1970 1985 2005 2042 2077 2103 2134 2173 2207 2235 2259 2282 2299 2306 2310 2314 2315 2311 2294 2285 2280 2268 2243 2225 2200 2165 2131 2101 2076 2054 2035 2018 2013 2013 2019 2024 2027 2019 2011 2005 2014 2025 2033 2038 2049 2065 2077 2089 2106 2122 2134 2144 2141 2127 2115 2114 2110 2099 2077 2053 2024 2004 1988 1961 1936 1912 1889 1870 1852 1836 1817 1796 1786 1767 1738 1698 1664 1624 1567 1525 1519 1517 1524 1540 1538 1520 1507 1489 1470 1458 1440 1411 1379 1342 1310 1283 1270 1249 1208 1177 1166 1157 1145 1138 1129 1104 1079 1076 1081 1079 1066 1049 1028 1012 1007 1006 1004 1000 1003 1023 1044 1063 1075 1087 1096 1109 1124 1141 1161 1178 1195 1225 1251 1281 1313 1350 1382 1409 1439 1476 1513 1548 1592 1637 1667 1690 1717 1753 1785 1813 1833 1851 1862 1866 1886 1913 1929 1930 1921 1919 1918 1918 1923 1932 1932 1931 1937 1943 1948 1933 1901 1858 1815 1778 1750 1748 1770 1793 1832 1887 1931 1967 1990 1998 1996 1984 1971 1963 1953 1945 1928 1908 1898 1890 1895 1894 1902 1926 1947 1958 1972 1993 1992 1998 2013 2018 2031 2048 2067 2084 2101 2120 2140 2171 2201 2230 2256 2289 2312 2338 2365 2381 2399 2417 2448 2485 2526 2568 2603 2624 2664 2696 2711 2730 2730 2741 2743 2734 2729 2715 2694 2660 2624 2599 2580 2564 2549 2536 2528 2524 2516
2517 2533 2549 2564 2583 2613 2651 2688 2726 2790 2888 2968 3039 3117 3190 3186 3164 3154 3108 3074 3036 3009 2991 2973 2961 2944 2926 2901 2885 2875 2858 2841 2828 2809 2783 2762 2744 2720 2690 2662 2635 2619 2605 2593 2588 2584 2580 2578 2582 2580 2581 2588 2595 2602 2595 2582 2564 2558 2561 2558 2550 2549 2551 2564 2582 2595 2601 2598 2589 2579 2577 2578 2577 2582 2588 2589 2574 2523 2493 2443 2385 2331 2264 2177 2107 2065 2023 1985 1952 1922 1919 1917 1906 1891 1870 1852 1835 1820 1800 1785 1771 1756 1730 1694 1660 1644 1625 1610 1604 1588 1554 1531 1547 1583 1623 1653 1677 1722 1738 1757 1783 1813 1836 1860 1875 1901 1922 1929 1934 1943 1955 1972 1992 2010 2030 2060 2097 2131 2168 2197 2228 2252 2275 2289 2297 2298 2300 2297 2290 2278 2265 2255 2252 2239 2209 2180 2140 2107 2085 2062 2043 2029 2010 2007 2015 2014 2010 2012 2012 2005 2002 2014 2027 2030 2031 2033 2041 2053 2067 2078 2091 2107 2118 2121 2106 2083 2071 2063 2060 2047 2031 2015 1989 1973 1954 1933 1913 1890 1872 1846 1829 1814 1801 1788 1778 1765 1732 1694 1654 1615 1565 1506 1475 1456 1466 1487 1484 1470 1464 1453 1428 1417 1403 1372 1348 1314 1283 1252 1227 1213 1179 1154 1145 1134 1127 1123 1115 1104 1080 1060 1053 1053 1044 1023 999 990 991 991 994 1009 1023 1038 1049 1061 1071 1081 1093 1105 1122 1143 1164 1187 1222 1262 1290 1306 1329 1364 1406 1441 1469 1499 1536 1583 1628 1665 1698 1724 1749 1777 1801 1822 1842 1859 1874 1884 1892 1902 1906 1899 1894 1895 1894 1893 1900 1909 1917 1924 1937 1960 1973 1968 1949 1915 1872 1834 1800 1768 1754 1768 1791 1840 1873 1901 1928 1934 1930 1913 1904 1895 1890 1883 1871 1865 1867 1874 1885 1912 1937 1961 1978 1995 2007 2021 2028 2043 2062 2070 2086 2098 2116 2133 2160 2178 2205 2228 2244 2276 2304 2324 2353 2394 2438 2461 2468 2489 2512 2546 2585 2627 2664 2707 2726 2739 2730 2720 2715 2703 2694 2678 2665 2655 2628 2604 2577 2560 2547 2525 2505 2486 2471 2464 2462
2491 2506 2523 2541 2567 2604 2646 2699 2775 2843 2934 3014 3074 3141 3186 3181 3140 3117 3095 3070 3041 3007 2979 2952 2936 2917 2892 2864 2844 2833 2819 2806 2786 2764 2739 2723 2705 2683 2647 2621 2604 2591 2576 2561 2549 2540 2534 2529 2527 2533 2537 2545 2553 2560 2559 2552 2546 2547 2548 2550 2545 2537 2533 2541 2556 2570 2579 2577 2561 2550 2546 2545 2547 2552 2559 2561 2557 2516 2469 2420 2360 2303 2230 2160 2098 2050 2012 1978 1925 1901 1898 1892 1879 1859 1836 1817 1799 1784 1779 1774 1760 1745 1714 1678 1634 1601 1580 1566 1545 1535 1552 1592 1646 1687 1715 1731 1752 1778 1803 1820 1830 1846 1872 1890 1909 1928 1941 1954 1959 1964 1982 2002 2021 2038 2052 2082 2116 2155 2186 2216 2242 2259 2268 2275 2281 2284 2280 2273 2263 2244 2224 2219 2211 2193 2152 2101 2078 2064 2048 2031 2022 2015 2010 2008 2012 2007 2007 1999 1994 1997 2005 2005 2007 2010 2017 2025 2034 2044 2056 2067 2078 2087 2094 2085 2061 2039 2022 2018 2012 1998 1976 1956 1928 1921 1899 1880 1866 1861 1847 1820 1801 1790 1785 1775 1760 1742 1721 1695 1663 1628 1584 1531 1474 1418 1403 1424 1427 1417 1416 1419 1406 1383 1360 1333 1307 1283 1261 1226 1199 1174 1153 1136 1123 1120 1112 1108 1102 1092 1084 1061 1037 1024 1013 990 987 988 991 996 1009 1021 1028 1039 1052 1061 1070 1079 1088 1102 1125 1141 1165 1200 1247 1287 1321 1349 1367 1389 1418 1453 1487 1526 1559 1604 1644 1686 1728 1753 1769 1789 1806 1823 1842 1857 1866 1862 1863 1867 1871 1863 1854 1852 1853 1856 1865 1886 1902 1918 1940 1958 1974 1983 1981 1963 1930 1884 1847 1805 1777 1762 1770 1789 1814 1834 1852 1863 1861 1854 1852 1849 1845 1851 1859 1873 1898 1918 1940 1963 1985 2008 2025 2044 2068 2089 2106 2102 2109 2130 2148 2165 2184 2191 2219 2232 2267 2296 2304 2311 2334 2356 2391 2436 2487 2529 2555 2559 2585 2620 2657 2681 2695 2708 2713 2707 2692 2677 2655 2634 2619 2608 2595 2582 2563 2544 2526 2513 2500 2476 2454 2443 2434 2425 2417
2459 2476 2495 2522 2576 2634 2698 2764 2828 2877 2945 3002 3049 3106 3154 3160 3132 3098 3075 3059 3035 3007 2968 2926 2900 2877 2853 2828 2802 2788 2775 2761 2742 2721 2702 2685 2667 2640 2608 2584 2570 2559 2543 2532 2516 2502 2493 2488 2488 2496 2497 2501 2513 2530 2533 2528 2524 2524 2529 2530 2529 2522 2516 2518 2530 2544 2554 2554 2539 2520 2512 2510 2517 2524 2532 2537 2535 2507 2466 2398 2323 2265 2196 2129 2075 2032 1995 1947 1899 1882 1870 1853 1830 1813 1791 1776 1771 1777 1773 1759 1741 1721 1700 1677 1622 1576 1542 1520 1531 1567 1612 1663 1696 1712 1727 1750 1789 1820 1841 1857 1875 1907 1919 1927 1938 1953 1967 1978 1984 1995 2007 2024 2045 2066 2083 2112 2142 2178 2210 2237 2248 2248 2253 2262 2266 2268 2262 2240 2221 2202 2189 2178 2158 2125 2085 2054 2037 2028 2024 2020 2019 2019 2013 2008 2005 2001 1995 1988 1985 1982 1978 1975 1980 1989 2001 2012 2022 2037 2049 2055 2058 2063 2058 2038 2016 1998 1983 1979 1966 1939 1909 1880 1859 1838 1820 1810 1799 1797 1794 1793 1782 1771 1764 1756 1737 1720 1706 1682 1654 1625 1586 1544 1497 1432 1380 1353 1362 1353 1353 1371 1381 1366 1329 1295 1276 1260 1241 1202 1180 1153 1134 1118 1103 1101 1096 1089 1080 1070 1054 1031 1014 1005 994 982 985 989 997 1004 1012 1020 1030 1039 1052 1064 1073 1084 1100 1119 1143 1158 1182 1228 1266 1305 1338 1375 1407 1435 1453 1476 1506 1537 1570 1613 1657 1703 1744 1760 1773 1788 1810 1829 1842 1847 1845 1832 1818 1814 1816 1814 1807 1806 1803 1803 1827 1855 1880 1908 1939 1964 1984 2005 2016 2002 1976 1938 1891 1850 1818 1790 1776 1779 1787 1797 1805 1811 1817 1829 1843 1851 1862 1886 1900 1917 1940 1970 1997 2021 2046 2071 2087 2116 2138 2150 2159 2160 2162 2176 2196 2218 2236 2254 2270 2277 2310 2351 2380 2384 2397 2411 2450 2498 2540 2582 2619 2649 2683 2699 2707 2695 2684 2674 2668 2657 2638 2602 2574 2556 2551 2540 2526 2513 2504 2485 2467 2455 2440 2421 2419 2413 2402 2393 2388
2426 2451 2481 2536 2603 2665 2724 2769 2807 2849 2896 2957 3010 3053 3111 3156 3166 3115 3058 3039 3016 2989 2954 2905 2869 2838 2819 2801 2771 2753 2742 2724 2702 2684 2666 2648 2622 2599 2570 2547 2533 2519 2502 2493 2482 2467 2455 2452 2452 2462 2471 2475 2486 2500 2506 2513 2507 2500 2500 2500 2500 2498 2495 2495 2505 2517 2525 2528 2520 2502 2490 2490 2495 2500 2501 2502 2496 2476 2433 2350 2273 2214 2153 2081 2030 1992 1950 1908 1875 1856 1838 1805 1774 1762 1752 1758 1773 1770 1752 1734 1717 1704 1688 1661 1625 1539 1529 1574 1604 1624 1648 1673 1683 1713 1758 1809 1836 1863 1890 1910 1924 1940 1956 1970 1986 1999 2002 1997 2009 2027 2039 2053 2076 2099 2123 2149 2175 2211 2229 2235 2238 2240 2247 2246 2243 2241 2226 2198 2182 2161 2147 2137 2110 2085 2069 2048 2030 2023 2022 2023 2023 2025 2018 2013 2007 1994 1982 1975 1972 1961 1956 1956 1962 1974 1989 2006 2017 2021 2026 2033 2041 2039 2021 1993 1972 1958 1951 1936 1914 1884 1830 1800 1780 1773 1745 1731 1717 1720 1725 1739 1749 1746 1741 1725 1705 1690 1678 1656 1625 1595 1571 1546 1507 1451 1394 1359 1332 1305 1302 1333 1357 1341 1307 1276 1253 1237 1217 1187 1161 1137 1117 1103 1094 1090 1086 1075 1057 1033 1018 1002 990 985 985 985 987 995 1001 1003 1007 1022 1031 1044 1054 1067 1083 1103 1124 1152 1168 1195 1228 1259 1301 1340 1379 1423 1463 1489 1509 1526 1551 1585 1615 1648 1679 1720 1749 1761 1777 1801 1818 1828 1829 1820 1804 1784 1760 1749 1750 1753 1755 1754 1754 1772 1802 1828 1857 1892 1928 1965 2003 2034 2046 2037 2015 1979 1936 1897 1866 1840 1829 1822 1810 1810 1814 1823 1847 1865 1878 1895 1906 1930 1950 1960 1983 2010 2052 2080 2105 2122 2150 2173 2184 2184 2197 2207 2217 2225 2236 2261 2281 2294 2324 2337 2363 2396 2435 2463 2481 2498 2523 2556 2592 2640 2689 2710 2708 2694 2683 2674 2651 2628 2616 2596 2564 2530 2503 2485 2473 2471 2457 2449 2444 2428 2413 2394 2386 2390 2393 2382 2377 2379 2391
