ncols        192
nrows        77
xllcorner    7.992083333291
yllcorner    46.397083333336
cellsize     0.000833333333
NODATA_value 0
 3706 3707 3729 3789 3836 3830 3798 3750 3666 3558 3496 3446 3410 3374 3340 3306 3277 3244 3222 3192 3163 3132 3109 3087 3062 3028 3000 2969 2929 2906 2888 2871 2856 2841 2824 2811 2799 2788 2776 2773 2790 2817 2845 2861 2887 2922 2961 2983 2993 3014 3021 3045 3090 3105 3120 3161 3195 3228 3290 3330 3355 3319 3255 3187 3107 3051 3006 2971 2945 2918 2902 2869 2837 2807 2754 2720 2653 2618 2585 2556 2535 2511 2495 2481 2466 2453 2437 2427 2422 2423 2424 2426 2427 2423 2422 2424 2422 2423 2422 2421 2421 2420 2419 2418 2417 2413 2409 2410 2407 2403 2397 2393 2393 2409 2436 2478 2527 2582 2647 2700 2738 2768 2810 2869 2952 3002 3023 2977 2948 2933 2914 2882 2849 2828 2810 2788 2781 2771 2764 2750 2739 2734 2731 2727 2713 2688 2644 2606 2570 2543 2503 2448 2390 2338 2273 2220 2149 2102 2051 2000 1918 1880 1857 1858 1853 1850 1855 1863 1859 1847 1844 1907 1974 1986 1990 2006 2036 2065 2100 2148 2195 2248 2307 2351 2400 2443 2486 2531 2566 2608 2649 2677
 3668 3673 3691 3720 3767 3774 3727 3701 3652 3567 3516 3467 3410 3354 3323 3288 3259 3224 3199 3168 3141 3113 3092 3067 3041 3015 2986 2950 2908 2882 2853 2829 2810 2796 2789 2773 2756 2744 2731 2723 2733 2763 2786 2808 2839 2860 2887 2908 2922 2947 2966 2972 2982 2983 2995 3040 3110 3157 3211 3260 3300 3319 3280 3220 3157 3068 3005 2969 2942 2916 2891 2861 2833 2811 2778 2732 2681 2632 2593 2570 2550 2534 2529 2525 2503 2477 2441 2427 2418 2418 2420 2421 2422 2421 2421 2423 2419 2417 2417 2416 2414 2415 2415 2413 2410 2407 2403 2403 2400 2398 2397 2395 2394 2402 2435 2476 2546 2607 2645 2679 2720 2759 2808 2877 2960 3015 3019 2959 2938 2924 2911 2884 2850 2828 2806 2789 2767 2746 2727 2705 2693 2700 2700 2699 2694 2676 2640 2606 2566 2527 2497 2440 2390 2349 2312 2275 2217 2163 2106 2038 1975 1884 1852 1849 1842 1837 1843 1853 1854 1842 1832 1862 1922 1947 1973 1995 2017 2045 2089 2140 2190 2245 2288 2330 2373 2414 2457 2500 2544 2585 2610 2632
 3632 3634 3646 3666 3682 3711 3679 3638 3595 3542 3496 3458 3414 3361 3319 3279 3242 3211 3181 3154 3124 3096 3074 3049 3026 2996 2969 2935 2901 2869 2833 2807 2786 2772 2759 2742 2726 2714 2700 2695 2695 2701 2722 2754 2784 2802 2823 2837 2849 2879 2904 2909 2909 2915 2934 2968 3032 3100 3147 3199 3233 3266 3272 3249 3208 3127 3047 2979 2935 2905 2877 2852 2824 2799 2766 2725 2694 2667 2637 2625 2635 2648 2610 2573 2529 2488 2453 2427 2414 2412 2412 2415 2418 2418 2418 2418 2418 2414 2411 2410 2409 2409 2410 2406 2403 2402 2399 2395 2394 2394 2392 2393 2393 2399 2430 2476 2526 2572 2613 2657 2713 2760 2829 2911 2977 3027 3031 2946 2917 2908 2892 2871 2842 2810 2785 2764 2743 2717 2688 2659 2646 2648 2653 2659 2661 2660 2642 2629 2614 2597 2557 2512 2459 2407 2365 2318 2257 2197 2132 2065 1993 1923 1855 1836 1834 1831 1833 1844 1848 1836 1818 1834 1879 1919 1949 1975 1999 2037 2086 2126 2175 2221 2271 2317 2365 2426 2467 2512 2552 2567 2581 2599
 3581 3583 3606 3613 3615 3634 3624 3589 3552 3512 3460 3422 3393 3359 3329 3283 3241 3204 3175 3141 3111 3087 3064 3039 3014 2988 2961 2932 2901 2865 2826 2798 2774 2759 2741 2723 2708 2698 2688 2682 2681 2670 2667 2686 2708 2735 2754 2771 2796 2817 2848 2863 2862 2875 2899 2948 2986 3044 3092 3133 3163 3189 3226 3234 3210 3145 3075 3042 2992 2937 2895 2867 2848 2820 2790 2754 2727 2710 2699 2694 2696 2688 2633 2597 2551 2496 2461 2430 2414 2406 2405 2408 2411 2413 2412 2412 2412 2409 2406 2405 2401 2400 2401 2399 2396 2394 2390 2388 2387 2388 2388 2387 2388 2402 2428 2475 2519 2565 2617 2670 2715 2787 2868 2932 2990 3035 3009 2931 2895 2881 2857 2837 2812 2784 2759 2739 2720 2698 2664 2635 2619 2615 2612 2611 2622 2628 2624 2614 2602 2601 2587 2540 2501 2452 2405 2352 2292 2229 2146 2079 2010 1943 1866 1832 1826 1825 1826 1833 1837 1828 1809 1808 1840 1888 1925 1954 1988 2035 2084 2134 2183 2226 2279 2327 2382 2435 2475 2512 2539 2541 2549 2570
 3526 3515 3534 3549 3560 3557 3552 3560 3538 3494 3436 3402 3376 3347 3318 3289 3252 3215 3183 3146 3118 3090 3061 3035 3009 2988 2965 2936 2904 2874 2827 2796 2772 2748 2726 2708 2698 2692 2683 2676 2664 2660 2650 2642 2652 2668 2688 2709 2730 2756 2779 2798 2822 2834 2870 2912 2946 2979 3032 3067 3101 3142 3179 3203 3200 3140 3075 3032 2998 2971 2936 2904 2881 2854 2824 2807 2792 2762 2752 2766 2774 2755 2642 2599 2562 2513 2470 2433 2411 2401 2398 2399 2402 2406 2406 2406 2405 2403 2402 2400 2398 2392 2389 2388 2387 2389 2389 2382 2383 2384 2384 2383 2384 2419 2468 2516 2576 2620 2658 2700 2765 2834 2903 2958 3004 3007 2961 2911 2884 2860 2835 2814 2790 2763 2737 2722 2709 2686 2655 2630 2614 2599 2588 2586 2590 2593 2590 2583 2571 2567 2564 2544 2508 2462 2411 2370 2315 2266 2185 2095 2021 1959 1886 1837 1821 1818 1818 1823 1827 1822 1811 1799 1814 1854 1900 1953 2012 2064 2126 2165 2211 2254 2313 2357 2397 2446 2476 2498 2500 2502 2514 2538
 3476 3460 3449 3474 3511 3520 3525 3542 3533 3498 3438 3392 3358 3328 3299 3270 3244 3215 3189 3158 3127 3101 3067 3040 3017 2993 2970 2940 2912 2883 2844 2802 2775 2748 2720 2700 2686 2675 2666 2660 2653 2645 2639 2632 2624 2624 2631 2644 2665 2684 2702 2723 2752 2788 2824 2862 2893 2911 2944 2986 3031 3084 3129 3162 3183 3160 3095 3059 3023 2993 2965 2943 2931 2908 2894 2882 2854 2818 2806 2827 2792 2714 2667 2606 2572 2524 2477 2434 2410 2398 2393 2393 2394 2397 2399 2400 2401 2401 2395 2393 2389 2386 2383 2380 2381 2380 2382 2380 2380 2379 2378 2375 2379 2413 2471 2546 2604 2646 2693 2728 2775 2819 2885 2940 2982 2971 2925 2892 2867 2842 2815 2792 2771 2748 2726 2706 2689 2669 2641 2614 2593 2582 2578 2572 2569 2564 2552 2543 2534 2528 2531 2531 2505 2464 2403 2355 2299 2254 2205 2130 2046 1974 1905 1835 1813 1809 1809 1811 1814 1813 1806 1794 1792 1828 1902 1975 2030 2080 2129 2173 2219 2257 2306 2351 2387 2423 2445 2458 2460 2464 2483 2509
 3402 3399 3402 3413 3437 3478 3528 3547 3541 3520 3470 3406 3360 3318 3284 3254 3228 3207 3183 3161 3137 3109 3080 3057 3027 2996 2974 2949 2923 2900 2863 2827 2791 2753 2718 2692 2673 2656 2643 2641 2642 2634 2627 2623 2619 2612 2604 2602 2612 2625 2643 2661 2686 2725 2760 2796 2824 2850 2884 2922 2960 3021 3071 3112 3149 3186 3188 3155 3110 3072 3055 3024 3011 2990 2989 2980 2919 2830 2797 2788 2753 2716 2682 2611 2573 2539 2485 2443 2415 2399 2391 2389 2390 2392 2394 2394 2399 2397 2393 2389 2384 2380 2377 2377 2378 2379 2378 2379 2377 2375 2374 2369 2364 2377 2445 2530 2592 2629 2659 2686 2741 2792 2862 2909 2963 2969 2927 2881 2843 2810 2769 2748 2737 2724 2706 2683 2664 2650 2625 2596 2570 2561 2560 2557 2554 2545 2525 2506 2494 2489 2500 2505 2498 2477 2430 2387 2321 2278 2225 2156 2061 1980 1919 1858 1811 1798 1798 1796 1797 1792 1791 1785 1786 1827 1903 1945 2003 2047 2099 2149 2192 2243 2283 2317 2350 2378 2401 2411 2417 2431 2455 2496
 3340 3349 3353 3355 3369 3423 3504 3557 3564 3531 3481 3433 3387 3334 3294 3263 3228 3195 3169 3148 3131 3110 3088 3067 3039 3015 2990 2966 2940 2914 2882 2846 2810 2778 2736 2694 2669 2650 2638 2632 2628 2624 2616 2611 2607 2605 2596 2590 2586 2586 2594 2607 2624 2659 2698 2737 2772 2806 2837 2875 2911 2949 2997 3057 3112 3156 3199 3215 3204 3178 3171 3156 3152 3132 3105 3047 2973 2879 2803 2753 2732 2707 2676 2631 2575 2536 2484 2446 2422 2406 2392 2387 2385 2389 2390 2390 2391 2392 2387 2383 2379 2376 2372 2371 2371 2374 2376 2376 2374 2371 2369 2365 2357 2356 2408 2487 2544 2587 2616 2657 2715 2785 2849 2907 2967 2983 2929 2890 2832 2799 2745 2711 2698 2687 2678 2670 2655 2636 2607 2570 2554 2547 2547 2546 2538 2522 2506 2480 2463 2461 2462 2472 2480 2466 2436 2403 2328 2274 2234 2149 2051 1970 1922 1869 1820 1793 1784 1783 1782 1779 1779 1775 1767 1798 1867 1915 1967 2002 2061 2146 2190 2229 2246 2277 2309 2337 2352 2365 2378 2404 2441 2480
 3300 3309 3306 3310 3313 3344 3442 3494 3547 3540 3485 3433 3399 3363 3331 3293 3249 3213 3175 3144 3118 3101 3084 3065 3044 3024 2999 2974 2948 2922 2894 2865 2830 2799 2760 2723 2685 2657 2637 2624 2615 2615 2613 2608 2602 2596 2591 2587 2583 2577 2573 2577 2579 2594 2620 2663 2719 2759 2789 2828 2874 2917 2956 3011 3059 3101 3139 3175 3217 3247 3252 3245 3247 3225 3167 3090 3031 2954 2852 2765 2737 2705 2666 2615 2555 2520 2486 2464 2438 2411 2389 2379 2379 2382 2381 2380 2384 2386 2384 2380 2376 2374 2371 2368 2368 2370 2371 2370 2369 2366 2362 2358 2355 2354 2383 2438 2504 2548 2619 2667 2732 2789 2852 2923 2972 3008 2954 2905 2829 2798 2759 2720 2696 2672 2657 2653 2648 2637 2608 2569 2541 2527 2524 2524 2519 2502 2484 2463 2441 2426 2416 2417 2424 2439 2406 2355 2261 2225 2143 2062 1993 1939 1913 1884 1852 1807 1775 1771 1773 1771 1765 1758 1753 1755 1801 1849 1916 1972 2070 2144 2184 2200 2213 2232 2263 2295 2310 2320 2346 2380 2421 2456
 3257 3264 3261 3259 3266 3293 3331 3404 3524 3567 3539 3471 3416 3372 3334 3291 3248 3214 3185 3156 3131 3109 3087 3069 3048 3026 3001 2970 2948 2927 2896 2872 2843 2808 2776 2747 2720 2699 2650 2618 2612 2609 2607 2600 2592 2588 2580 2579 2574 2569 2568 2568 2565 2565 2579 2600 2639 2692 2735 2775 2836 2878 2900 2934 2988 3031 3087 3136 3173 3219 3236 3247 3253 3235 3190 3114 3047 2964 2853 2788 2741 2711 2667 2622 2575 2546 2512 2482 2451 2415 2386 2373 2372 2374 2374 2376 2380 2378 2377 2375 2371 2369 2369 2364 2360 2366 2367 2367 2366 2364 2360 2355 2353 2356 2374 2420 2497 2569 2631 2685 2738 2793 2858 2934 2984 2999 2942 2883 2836 2811 2782 2752 2720 2694 2670 2658 2641 2627 2601 2569 2535 2511 2501 2502 2498 2488 2469 2442 2410 2386 2370 2356 2343 2317 2299 2233 2161 2123 2066 1998 1946 1924 1897 1881 1856 1827 1804 1779 1769 1762 1756 1749 1738 1731 1740 1792 1873 1940 2028 2098 2138 2154 2164 2190 2211 2241 2265 2290 2325 2362 2394 2423
 3216 3222 3227 3228 3231 3254 3270 3340 3475 3572 3581 3509 3447 3377 3335 3290 3253 3222 3199 3174 3156 3133 3104 3081 3055 3029 3004 2977 2953 2931 2903 2877 2855 2826 2799 2776 2759 2738 2703 2651 2614 2599 2595 2592 2587 2581 2579 2575 2569 2564 2561 2561 2557 2556 2550 2561 2576 2615 2661 2723 2767 2805 2841 2883 2923 2971 3042 3098 3150 3171 3161 3170 3188 3223 3217 3159 3077 2971 2883 2821 2770 2729 2691 2656 2627 2587 2523 2486 2448 2418 2387 2369 2363 2365 2366 2367 2371 2371 2374 2372 2366 2364 2366 2364 2361 2361 2363 2363 2361 2356 2353 2351 2350 2357 2380 2439 2506 2569 2618 2674 2722 2774 2848 2930 2988 2965 2873 2841 2825 2805 2781 2765 2744 2717 2692 2674 2653 2631 2596 2566 2532 2498 2486 2486 2481 2474 2450 2413 2379 2362 2334 2309 2278 2252 2187 2132 2075 2036 1995 1949 1921 1893 1864 1838 1818 1816 1814 1813 1806 1775 1753 1737 1723 1704 1702 1724 1804 1890 1956 2027 2078 2108 2124 2146 2167 2197 2228 2274 2310 2339 2361 2379
 3186 3195 3199 3199 3205 3222 3232 3269 3412 3529 3592 3572 3470 3380 3332 3300 3265 3239 3223 3203 3179 3149 3119 3090 3058 3032 3008 2984 2962 2943 2915 2893 2880 2855 2827 2808 2790 2770 2743 2700 2654 2604 2594 2592 2590 2585 2582 2577 2567 2557 2552 2552 2551 2549 2543 2539 2541 2555 2593 2654 2709 2746 2775 2823 2874 2922 2976 3023 3074 3100 3082 3082 3135 3181 3197 3166 3107 3034 2962 2889 2842 2791 2734 2680 2644 2609 2544 2489 2447 2414 2382 2362 2355 2355 2357 2359 2364 2366 2369 2367 2365 2361 2361 2360 2360 2361 2361 2360 2356 2352 2348 2347 2345 2351 2372 2433 2511 2569 2622 2666 2727 2807 2877 2967 2987 2883 2817 2799 2784 2765 2756 2748 2739 2726 2714 2707 2685 2653 2611 2577 2541 2502 2482 2472 2465 2461 2435 2395 2362 2338 2301 2258 2219 2172 2117 2078 2038 1985 1950 1921 1894 1854 1831 1793 1773 1772 1771 1781 1802 1801 1786 1763 1727 1697 1682 1698 1760 1852 1911 2005 2062 2086 2096 2110 2134 2163 2202 2244 2282 2308 2321 2331
 3152 3158 3163 3165 3173 3192 3197 3214 3330 3492 3581 3581 3507 3437 3358 3310 3274 3257 3240 3214 3182 3148 3118 3087 3063 3040 3017 2996 2978 2960 2940 2921 2908 2887 2859 2837 2810 2789 2760 2725 2682 2642 2612 2598 2590 2585 2580 2577 2573 2565 2553 2549 2541 2536 2535 2530 2530 2528 2536 2562 2622 2674 2720 2771 2816 2871 2912 2941 2956 2967 2973 3004 3101 3130 3145 3152 3105 3052 2994 2933 2884 2819 2762 2704 2660 2613 2558 2490 2447 2415 2380 2355 2350 2349 2350 2354 2358 2361 2362 2364 2361 2360 2358 2355 2354 2354 2354 2355 2353 2351 2347 2343 2341 2342 2357 2440 2522 2579 2633 2692 2772 2854 2920 2977 2928 2814 2780 2766 2743 2729 2723 2716 2706 2700 2696 2698 2701 2686 2666 2622 2566 2527 2503 2478 2459 2446 2414 2382 2354 2322 2275 2231 2191 2144 2098 2062 2024 1965 1931 1900 1862 1824 1795 1759 1732 1717 1715 1727 1746 1754 1752 1757 1740 1713 1677 1668 1704 1809 1862 1951 2021 2048 2056 2072 2100 2128 2164 2205 2234 2255 2275 2281
 3119 3131 3137 3143 3148 3162 3180 3192 3245 3422 3558 3593 3559 3491 3426 3364 3326 3310 3296 3274 3255 3212 3160 3099 3079 3056 3038 3024 3010 3001 2984 2967 2943 2910 2881 2855 2823 2797 2764 2730 2694 2664 2639 2619 2602 2583 2570 2567 2566 2565 2557 2549 2545 2534 2526 2521 2520 2519 2516 2519 2542 2595 2656 2713 2757 2804 2852 2881 2891 2889 2902 2949 3009 3057 3071 3069 3057 3028 2989 2926 2862 2798 2740 2696 2657 2610 2545 2480 2437 2407 2370 2347 2340 2341 2343 2345 2348 2351 2355 2355 2354 2354 2355 2354 2351 2351 2352 2352 2350 2349 2345 2341 2338 2343 2369 2444 2523 2586 2651 2709 2796 2844 2902 2916 2871 2781 2747 2735 2714 2698 2682 2669 2665 2660 2659 2660 2661 2657 2638 2616 2589 2551 2519 2486 2461 2442 2409 2378 2347 2312 2268 2219 2172 2123 2086 2048 2008 1966 1927 1891 1857 1819 1790 1746 1707 1672 1655 1662 1671 1683 1702 1737 1749 1736 1702 1660 1666 1764 1838 1913 1978 1997 2015 2041 2071 2099 2130 2159 2180 2199 2215 2224
 3092 3101 3111 3120 3122 3147 3175 3191 3262 3414 3524 3558 3569 3549 3497 3440 3403 3370 3348 3330 3305 3270 3230 3190 3141 3098 3067 3059 3051 3015 2983 2954 2931 2907 2888 2862 2838 2805 2773 2748 2714 2691 2668 2650 2627 2597 2573 2563 2554 2554 2558 2557 2548 2535 2523 2514 2513 2510 2508 2502 2502 2522 2573 2647 2696 2736 2780 2820 2833 2833 2845 2881 2924 2938 2953 2954 2957 2978 2975 2916 2832 2768 2718 2668 2626 2580 2523 2472 2429 2394 2359 2334 2329 2333 2336 2339 2340 2345 2349 2348 2348 2348 2349 2349 2349 2350 2349 2347 2347 2345 2343 2338 2335 2341 2375 2450 2533 2597 2641 2719 2767 2792 2816 2825 2813 2763 2716 2703 2684 2659 2638 2626 2624 2623 2627 2625 2617 2608 2601 2587 2569 2544 2514 2480 2447 2421 2388 2357 2320 2290 2251 2205 2162 2115 2080 2041 2003 1964 1933 1896 1866 1834 1785 1728 1679 1637 1611 1602 1610 1620 1646 1724 1757 1745 1713 1670 1639 1714 1808 1863 1928 1947 1967 1990 2014 2042 2075 2101 2120 2142 2159 2169
 3060 3070 3084 3095 3110 3127 3157 3206 3301 3410 3485 3516 3542 3567 3551 3510 3473 3446 3411 3373 3315 3261 3223 3190 3158 3126 3097 3077 3050 3020 2998 2976 2943 2916 2891 2873 2851 2825 2799 2781 2759 2730 2720 2711 2695 2661 2627 2588 2562 2550 2545 2540 2533 2525 2511 2499 2494 2507 2508 2493 2484 2487 2507 2550 2623 2666 2691 2725 2740 2759 2762 2798 2832 2853 2862 2860 2873 2902 2915 2867 2818 2739 2693 2635 2597 2548 2507 2445 2411 2382 2345 2321 2322 2329 2329 2330 2334 2339 2343 2344 2344 2345 2345 2344 2344 2346 2346 2346 2341 2339 2337 2335 2330 2331 2358 2451 2549 2588 2636 2694 2724 2732 2739 2739 2733 2712 2689 2673 2651 2636 2618 2603 2602 2603 2596 2587 2580 2574 2572 2559 2540 2515 2490 2466 2438 2413 2374 2338 2301 2267 2223 2188 2160 2123 2091 2058 2028 1995 1959 1925 1883 1847 1807 1755 1663 1612 1580 1572 1571 1589 1621 1682 1721 1717 1694 1654 1633 1691 1780 1817 1878 1900 1917 1937 1961 1990 2018 2041 2063 2088 2116 2144
 3024 3044 3064 3080 3089 3114 3152 3219 3335 3418 3448 3472 3509 3533 3564 3576 3553 3533 3471 3385 3309 3254 3218 3185 3149 3123 3101 3078 3052 3028 3010 2985 2959 2933 2910 2890 2871 2851 2830 2813 2792 2775 2771 2760 2741 2704 2661 2623 2590 2567 2547 2532 2525 2525 2514 2501 2493 2492 2488 2480 2473 2467 2466 2493 2557 2592 2621 2632 2646 2668 2686 2711 2745 2764 2778 2786 2797 2830 2866 2849 2791 2709 2657 2613 2569 2523 2484 2431 2398 2369 2331 2312 2318 2322 2325 2324 2328 2336 2337 2340 2339 2337 2337 2339 2337 2341 2342 2341 2338 2334 2331 2328 2323 2332 2378 2467 2538 2577 2620 2658 2672 2678 2681 2681 2673 2670 2661 2647 2634 2624 2610 2592 2584 2574 2561 2552 2546 2545 2543 2529 2512 2491 2466 2442 2417 2396 2366 2335 2290 2255 2217 2193 2182 2166 2146 2125 2076 2045 2011 1970 1914 1868 1827 1743 1671 1604 1571 1551 1548 1558 1582 1626 1661 1676 1650 1622 1608 1646 1732 1783 1839 1863 1879 1898 1918 1943 1970 2007 2037 2072 2107 2129
 3003 3024 3044 3064 3078 3108 3161 3230 3348 3392 3400 3411 3446 3480 3529 3587 3615 3571 3506 3406 3315 3267 3234 3196 3165 3131 3101 3077 3056 3036 3016 2992 2972 2949 2926 2903 2886 2873 2859 2846 2834 2814 2798 2778 2755 2726 2691 2644 2612 2586 2568 2550 2531 2516 2506 2500 2492 2480 2471 2467 2468 2459 2449 2447 2463 2507 2528 2549 2562 2576 2606 2630 2662 2690 2695 2706 2728 2750 2770 2776 2743 2691 2639 2591 2544 2498 2456 2411 2374 2346 2319 2310 2316 2320 2322 2322 2326 2331 2332 2333 2331 2330 2333 2336 2336 2339 2337 2335 2333 2330 2325 2323 2316 2325 2375 2433 2512 2547 2584 2614 2626 2630 2635 2635 2632 2630 2622 2609 2599 2587 2573 2561 2549 2533 2522 2518 2517 2518 2516 2501 2479 2457 2437 2412 2391 2370 2354 2332 2306 2285 2279 2256 2242 2237 2215 2190 2135 2088 2051 2003 1935 1876 1817 1715 1667 1613 1564 1537 1532 1535 1553 1594 1624 1644 1628 1598 1587 1654 1718 1755 1805 1845 1850 1865 1882 1899 1931 1972 2008 2040 2065 2088
 2980 2996 3021 3040 3068 3113 3169 3245 3337 3350 3352 3356 3394 3434 3485 3527 3589 3592 3521 3433 3353 3289 3245 3218 3183 3147 3119 3089 3068 3057 3044 3026 3000 2975 2956 2936 2917 2899 2878 2867 2854 2837 2811 2791 2771 2749 2717 2679 2643 2614 2598 2580 2564 2541 2513 2494 2490 2481 2468 2460 2454 2450 2447 2437 2428 2436 2452 2461 2476 2491 2508 2533 2569 2599 2621 2631 2645 2661 2677 2697 2702 2664 2635 2562 2539 2492 2451 2405 2365 2330 2307 2308 2312 2316 2316 2317 2318 2326 2328 2329 2326 2324 2327 2329 2330 2331 2331 2327 2325 2324 2322 2316 2310 2315 2360 2412 2468 2506 2550 2574 2589 2595 2597 2597 2594 2585 2574 2563 2551 2539 2529 2518 2509 2493 2487 2485 2485 2485 2482 2471 2449 2426 2407 2388 2373 2359 2343 2338 2351 2352 2339 2339 2347 2337 2293 2235 2179 2123 2070 2002 1945 1881 1805 1713 1672 1622 1577 1537 1521 1518 1537 1568 1602 1635 1638 1598 1569 1624 1690 1717 1758 1808 1823 1831 1848 1861 1891 1925 1955 1982 2014 2036
 2960 2976 2997 3020 3086 3144 3202 3265 3321 3294 3296 3312 3343 3387 3429 3470 3513 3574 3573 3493 3428 3348 3282 3228 3193 3154 3123 3103 3089 3072 3054 3035 3014 2992 2977 2964 2948 2927 2907 2893 2873 2849 2826 2808 2785 2762 2739 2714 2692 2680 2663 2641 2619 2595 2564 2528 2502 2481 2469 2458 2443 2432 2430 2428 2420 2408 2400 2398 2400 2410 2426 2439 2457 2478 2508 2531 2547 2570 2595 2629 2650 2620 2583 2544 2516 2479 2436 2396 2355 2312 2296 2300 2305 2308 2310 2314 2316 2321 2323 2326 2324 2320 2323 2323 2324 2326 2323 2319 2318 2317 2314 2306 2302 2300 2327 2378 2425 2467 2504 2530 2549 2559 2559 2556 2556 2546 2537 2528 2517 2506 2496 2483 2470 2462 2460 2458 2456 2450 2442 2429 2413 2396 2381 2374 2362 2354 2362 2375 2388 2386 2390 2390 2378 2351 2308 2265 2205 2134 2081 2022 1950 1881 1822 1756 1691 1633 1581 1539 1509 1499 1510 1542 1584 1626 1644 1605 1562 1568 1630 1658 1693 1750 1793 1799 1808 1819 1843 1873 1896 1927 1959 1985
 2945 2961 2981 3022 3111 3158 3206 3239 3250 3239 3257 3289 3313 3359 3410 3465 3515 3586 3613 3583 3523 3446 3366 3290 3225 3171 3143 3126 3111 3094 3071 3048 3029 3010 2991 2977 2962 2947 2931 2919 2896 2871 2850 2831 2813 2791 2772 2758 2737 2719 2716 2698 2681 2655 2617 2582 2551 2512 2480 2460 2444 2425 2415 2408 2404 2394 2381 2361 2352 2353 2354 2352 2359 2372 2391 2419 2445 2476 2508 2535 2558 2556 2517 2495 2486 2458 2410 2370 2330 2298 2286 2291 2297 2302 2307 2311 2313 2316 2319 2320 2318 2316 2318 2318 2320 2320 2317 2314 2313 2308 2303 2297 2294 2287 2301 2339 2375 2409 2444 2468 2492 2511 2519 2517 2510 2506 2501 2497 2491 2486 2478 2466 2453 2445 2438 2433 2423 2417 2402 2391 2382 2371 2366 2361 2364 2374 2390 2400 2407 2421 2423 2412 2381 2350 2304 2269 2207 2141 2092 2041 1966 1886 1846 1790 1727 1660 1593 1545 1504 1483 1491 1519 1562 1608 1625 1596 1547 1503 1524 1584 1631 1680 1741 1772 1779 1787 1802 1827 1855 1887 1921 1940
 2926 2947 2973 3023 3086 3135 3146 3167 3195 3221 3242 3273 3312 3362 3427 3497 3559 3630 3675 3673 3619 3547 3457 3372 3294 3212 3169 3152 3134 3113 3086 3064 3041 3026 3010 2994 2979 2964 2951 2940 2923 2900 2879 2858 2844 2822 2813 2811 2801 2774 2771 2767 2732 2700 2669 2635 2594 2560 2525 2484 2453 2431 2421 2411 2400 2388 2370 2346 2323 2312 2300 2288 2293 2306 2313 2329 2354 2390 2434 2455 2463 2459 2439 2433 2429 2426 2387 2336 2298 2276 2279 2285 2289 2295 2302 2305 2312 2313 2314 2315 2312 2311 2313 2315 2315 2314 2310 2307 2305 2300 2298 2292 2290 2281 2279 2301 2330 2358 2383 2406 2429 2451 2465 2470 2469 2466 2463 2465 2463 2460 2453 2444 2431 2420 2411 2401 2391 2386 2380 2375 2369 2368 2367 2377 2392 2400 2411 2427 2443 2446 2442 2426 2391 2360 2330 2284 2219 2152 2094 2043 1968 1913 1868 1796 1742 1671 1610 1556 1512 1489 1476 1498 1542 1591 1611 1594 1547 1492 1457 1507 1564 1620 1677 1724 1755 1763 1775 1790 1818 1846 1881 1900
 2919 2950 2977 3014 3055 3088 3124 3146 3179 3208 3237 3274 3332 3401 3470 3546 3618 3663 3674 3671 3643 3582 3514 3432 3354 3296 3223 3192 3166 3143 3107 3091 3072 3060 3056 3058 3055 3035 3023 2999 2982 2961 2933 2902 2897 2877 2872 2861 2848 2838 2837 2816 2771 2737 2706 2664 2638 2606 2570 2537 2504 2459 2428 2412 2400 2389 2371 2341 2309 2288 2270 2255 2254 2255 2264 2280 2295 2313 2340 2357 2377 2375 2357 2363 2370 2371 2334 2301 2271 2256 2261 2274 2281 2290 2295 2299 2306 2307 2309 2308 2306 2309 2308 2307 2308 2306 2303 2301 2300 2296 2292 2288 2286 2273 2258 2266 2288 2316 2341 2354 2374 2397 2410 2419 2421 2421 2421 2422 2424 2424 2423 2415 2404 2391 2383 2375 2366 2362 2358 2359 2365 2374 2384 2398 2408 2423 2444 2457 2466 2466 2451 2432 2400 2363 2321 2269 2211 2158 2098 2039 1983 1927 1876 1822 1761 1672 1636 1568 1521 1487 1466 1468 1511 1559 1580 1580 1559 1500 1446 1448 1487 1548 1626 1673 1710 1730 1750 1770 1797 1820 1840 1847
 2928 2956 2996 3024 3063 3099 3117 3135 3162 3201 3246 3335 3405 3504 3564 3624 3659 3673 3669 3661 3643 3604 3548 3479 3452 3416 3371 3340 3303 3271 3231 3207 3187 3200 3207 3182 3169 3163 3150 3130 3103 3057 3030 3012 3004 2977 2954 2945 2934 2907 2878 2817 2783 2754 2727 2699 2680 2654 2634 2599 2557 2519 2479 2451 2432 2422 2410 2390 2353 2305 2273 2254 2242 2229 2227 2233 2241 2245 2254 2272 2286 2302 2302 2298 2304 2301 2282 2261 2235 2232 2248 2263 2275 2284 2291 2295 2298 2302 2303 2299 2301 2302 2301 2301 2304 2301 2298 2295 2293 2290 2288 2286 2281 2271 2257 2255 2263 2281 2304 2319 2332 2349 2360 2371 2382 2386 2388 2390 2390 2390 2391 2388 2379 2368 2363 2362 2360 2361 2361 2368 2381 2389 2406 2421 2435 2451 2474 2484 2484 2477 2458 2430 2386 2341 2292 2240 2196 2151 2101 2058 2021 1950 1879 1810 1763 1744 1702 1580 1513 1476 1450 1450 1482 1523 1556 1563 1551 1507 1458 1419 1436 1475 1543 1623 1662 1691 1724 1743 1765 1783 1793 1802
 2948 2970 3005 3038 3066 3094 3113 3142 3170 3256 3331 3416 3496 3560 3625 3680 3670 3646 3644 3643 3634 3619 3599 3584 3555 3504 3463 3439 3404 3363 3335 3313 3302 3302 3295 3277 3264 3258 3253 3234 3223 3193 3175 3174 3149 3123 3061 3046 2992 2926 2879 2830 2809 2783 2760 2737 2713 2695 2680 2661 2635 2598 2562 2539 2528 2502 2483 2450 2413 2368 2323 2291 2263 2235 2213 2200 2197 2200 2202 2208 2218 2231 2243 2244 2243 2238 2218 2207 2209 2223 2238 2253 2267 2277 2284 2290 2293 2296 2299 2296 2295 2296 2296 2298 2298 2293 2289 2289 2288 2287 2286 2285 2282 2276 2270 2276 2282 2293 2298 2302 2305 2317 2329 2339 2351 2357 2360 2359 2360 2359 2362 2364 2365 2360 2355 2360 2360 2368 2382 2398 2408 2420 2437 2457 2482 2495 2503 2516 2506 2474 2438 2397 2354 2300 2254 2214 2175 2135 2098 2054 2014 1964 1910 1849 1815 1761 1693 1602 1480 1459 1437 1436 1455 1487 1521 1544 1536 1508 1462 1412 1392 1421 1483 1558 1617 1657 1689 1706 1723 1740 1751 1776
 2962 2986 3015 3040 3065 3091 3119 3160 3237 3316 3404 3452 3509 3558 3614 3630 3608 3575 3582 3597 3610 3613 3603 3594 3580 3565 3536 3501 3467 3429 3395 3358 3333 3311 3295 3277 3267 3258 3258 3267 3283 3314 3311 3289 3253 3216 3169 3134 3074 2995 2939 2872 2840 2819 2803 2785 2771 2764 2750 2736 2708 2682 2645 2614 2588 2557 2531 2497 2457 2416 2378 2341 2300 2262 2223 2194 2174 2167 2164 2164 2169 2179 2187 2189 2191 2194 2195 2201 2208 2218 2232 2246 2258 2270 2277 2282 2286 2290 2292 2292 2291 2292 2293 2294 2292 2289 2287 2285 2285 2283 2281 2277 2287 2301 2303 2305 2303 2304 2305 2305 2308 2312 2318 2323 2330 2335 2338 2339 2342 2345 2350 2353 2351 2355 2358 2368 2384 2400 2416 2431 2437 2455 2478 2501 2519 2523 2537 2541 2507 2466 2413 2366 2325 2269 2217 2178 2137 2104 2072 2040 1998 1951 1905 1859 1806 1753 1699 1634 1472 1451 1424 1417 1426 1451 1474 1498 1501 1485 1460 1424 1383 1375 1415 1493 1570 1626 1651 1664 1684 1704 1728 1758
 2993 3016 3046 3074 3097 3117 3158 3198 3274 3339 3392 3448 3512 3565 3566 3546 3529 3517 3526 3537 3549 3571 3587 3583 3563 3542 3516 3479 3450 3413 3371 3336 3302 3284 3269 3252 3239 3233 3227 3226 3229 3268 3322 3351 3349 3299 3250 3190 3134 3083 3032 3000 2913 2885 2870 2867 2883 2863 2849 2805 2742 2702 2670 2645 2619 2592 2561 2529 2490 2446 2411 2378 2337 2292 2250 2210 2182 2169 2162 2162 2164 2167 2170 2176 2180 2187 2195 2202 2206 2214 2221 2234 2249 2261 2271 2273 2277 2280 2283 2286 2285 2287 2286 2287 2285 2284 2283 2282 2281 2279 2278 2276 2295 2328 2344 2345 2332 2332 2330 2325 2326 2331 2332 2332 2332 2332 2332 2335 2343 2350 2350 2348 2352 2366 2381 2395 2417 2431 2441 2452 2471 2486 2505 2524 2545 2554 2560 2544 2491 2448 2382 2341 2293 2236 2193 2148 2098 2054 2028 2000 1970 1924 1873 1826 1776 1735 1693 1614 1483 1447 1411 1393 1393 1407 1424 1440 1444 1442 1425 1403 1372 1358 1390 1446 1545 1596 1619 1630 1654 1681 1701 1719
 3057 3079 3107 3131 3143 3145 3173 3208 3259 3337 3405 3459 3542 3576 3550 3527 3506 3493 3485 3485 3487 3504 3519 3535 3529 3508 3477 3448 3417 3382 3337 3306 3281 3264 3252 3235 3226 3220 3215 3201 3190 3193 3233 3285 3309 3293 3273 3254 3192 3152 3110 3082 3013 3001 2971 2946 2940 2922 2858 2793 2756 2725 2700 2672 2638 2610 2577 2545 2520 2472 2434 2393 2359 2316 2274 2228 2194 2173 2166 2164 2170 2173 2178 2183 2185 2191 2197 2201 2206 2209 2216 2225 2239 2250 2259 2262 2268 2273 2276 2276 2278 2279 2281 2282 2279 2280 2279 2279 2278 2274 2269 2276 2311 2357 2393 2407 2390 2372 2372 2372 2363 2358 2361 2363 2360 2356 2354 2359 2364 2365 2362 2363 2375 2396 2412 2423 2441 2451 2468 2485 2495 2518 2539 2559 2569 2570 2561 2531 2456 2413 2355 2302 2243 2192 2155 2108 2055 2012 1985 1953 1909 1877 1831 1795 1754 1707 1673 1624 1522 1437 1404 1375 1360 1363 1367 1371 1376 1379 1381 1376 1353 1345 1373 1433 1523 1572 1590 1605 1629 1652 1672 1689
 3144 3154 3168 3186 3190 3181 3209 3250 3299 3370 3456 3531 3605 3588 3548 3520 3491 3476 3468 3466 3457 3448 3454 3469 3496 3471 3444 3418 3383 3353 3316 3287 3261 3245 3231 3215 3207 3201 3194 3174 3155 3151 3154 3205 3248 3235 3215 3203 3221 3241 3213 3171 3119 3090 3082 3055 3004 2947 2862 2814 2785 2762 2738 2701 2662 2629 2597 2567 2549 2521 2477 2436 2375 2336 2294 2244 2210 2187 2173 2167 2172 2178 2183 2187 2190 2197 2202 2204 2206 2209 2211 2218 2227 2239 2247 2253 2259 2263 2268 2271 2276 2277 2276 2275 2274 2275 2273 2273 2272 2266 2263 2275 2317 2377 2434 2471 2485 2471 2442 2428 2414 2408 2410 2406 2403 2398 2399 2398 2394 2394 2397 2406 2415 2432 2441 2455 2469 2482 2503 2519 2534 2554 2572 2585 2569 2540 2527 2490 2420 2357 2296 2242 2197 2156 2108 2065 2027 1986 1937 1902 1867 1826 1796 1775 1733 1679 1640 1592 1502 1436 1387 1349 1333 1329 1331 1332 1338 1344 1351 1352 1330 1336 1385 1453 1514 1537 1566 1594 1612 1626 1642 1664
 3221 3233 3248 3274 3264 3277 3308 3341 3387 3451 3532 3576 3619 3594 3556 3516 3483 3468 3462 3452 3437 3423 3416 3409 3428 3444 3415 3388 3359 3327 3292 3264 3243 3225 3202 3186 3179 3175 3163 3137 3113 3098 3099 3134 3200 3178 3157 3151 3155 3192 3238 3253 3225 3185 3141 3078 3018 2962 2883 2835 2806 2777 2752 2724 2693 2658 2628 2606 2577 2548 2518 2479 2408 2370 2317 2255 2220 2197 2178 2172 2176 2183 2187 2191 2198 2205 2205 2208 2209 2207 2209 2213 2218 2231 2239 2249 2252 2257 2260 2265 2270 2270 2271 2269 2268 2269 2268 2265 2262 2260 2260 2286 2335 2407 2464 2509 2544 2552 2523 2508 2482 2469 2466 2466 2457 2454 2450 2440 2438 2440 2446 2459 2458 2466 2477 2485 2500 2518 2535 2557 2577 2594 2594 2575 2525 2489 2466 2409 2343 2266 2225 2196 2165 2128 2084 2034 1997 1955 1905 1857 1822 1784 1752 1729 1694 1647 1606 1561 1494 1412 1358 1332 1317 1307 1306 1308 1318 1323 1320 1319 1311 1334 1394 1462 1497 1527 1548 1573 1588 1605 1628 1651
 3167 3185 3227 3287 3309 3338 3391 3469 3516 3552 3587 3614 3621 3590 3549 3510 3467 3451 3444 3432 3418 3403 3386 3371 3367 3394 3395 3360 3332 3306 3272 3252 3224 3197 3168 3155 3149 3143 3135 3114 3075 3053 3060 3082 3126 3138 3116 3109 3109 3127 3176 3235 3250 3213 3163 3107 3057 3001 2949 2889 2834 2811 2778 2748 2731 2707 2675 2679 2609 2554 2522 2469 2407 2361 2310 2242 2212 2188 2179 2180 2182 2186 2191 2195 2198 2203 2209 2210 2208 2208 2211 2214 2218 2228 2237 2244 2248 2253 2254 2258 2262 2264 2261 2263 2262 2262 2261 2258 2253 2250 2264 2313 2364 2423 2480 2533 2573 2609 2593 2567 2547 2526 2526 2522 2516 2508 2499 2495 2485 2477 2483 2489 2498 2503 2516 2523 2538 2556 2571 2585 2592 2573 2550 2514 2459 2435 2390 2327 2269 2226 2184 2155 2126 2092 2048 2005 1969 1924 1867 1824 1784 1748 1711 1680 1645 1605 1569 1522 1469 1410 1364 1336 1317 1295 1288 1293 1299 1299 1293 1301 1322 1358 1402 1451 1485 1514 1534 1558 1584 1602 1615 1629
 3087 3101 3124 3191 3235 3313 3395 3465 3538 3552 3558 3567 3556 3508 3508 3467 3430 3422 3415 3405 3388 3371 3352 3337 3338 3338 3362 3349 3316 3280 3252 3226 3199 3163 3142 3138 3138 3128 3107 3081 3044 3014 3020 3035 3074 3094 3081 3074 3079 3088 3108 3175 3229 3244 3198 3153 3112 3061 3010 2941 2883 2863 2821 2773 2758 2724 2682 2641 2585 2534 2493 2436 2389 2332 2275 2227 2197 2175 2178 2183 2184 2189 2194 2197 2201 2205 2206 2207 2208 2210 2213 2215 2221 2229 2234 2240 2245 2248 2251 2252 2253 2256 2255 2256 2253 2253 2251 2252 2246 2256 2287 2330 2369 2427 2481 2536 2583 2635 2663 2641 2614 2599 2588 2585 2573 2563 2553 2542 2526 2520 2526 2533 2547 2551 2562 2563 2577 2584 2587 2571 2548 2514 2480 2439 2413 2376 2325 2271 2223 2186 2151 2123 2089 2054 2018 1981 1933 1892 1859 1836 1810 1781 1731 1676 1641 1587 1530 1481 1441 1399 1358 1335 1310 1289 1274 1269 1273 1280 1295 1314 1342 1369 1404 1439 1478 1503 1524 1543 1559 1575 1591 1608
 3070 3088 3111 3140 3170 3230 3303 3402 3512 3526 3511 3494 3498 3465 3439 3397 3381 3374 3367 3358 3353 3333 3317 3309 3307 3303 3301 3329 3310 3264 3227 3194 3167 3139 3120 3122 3123 3113 3086 3051 3014 2992 2994 3008 3030 3053 3053 3045 3053 3054 3059 3107 3172 3195 3165 3124 3088 3052 3000 2941 2896 2847 2814 2773 2731 2689 2649 2602 2551 2500 2442 2377 2326 2273 2230 2199 2179 2173 2176 2183 2185 2189 2193 2196 2200 2203 2205 2206 2210 2212 2213 2217 2223 2232 2234 2236 2241 2242 2244 2244 2243 2247 2248 2247 2246 2245 2244 2244 2243 2263 2301 2337 2386 2441 2495 2546 2591 2656 2698 2702 2669 2650 2639 2635 2626 2619 2610 2598 2579 2572 2570 2577 2579 2584 2591 2595 2599 2583 2556 2526 2486 2448 2421 2406 2389 2347 2306 2251 2210 2172 2141 2113 2083 2051 2017 1991 1965 1943 1913 1881 1837 1788 1733 1684 1636 1576 1525 1486 1446 1406 1372 1332 1301 1274 1255 1258 1275 1288 1297 1321 1347 1380 1414 1444 1469 1487 1497 1515 1535 1551 1567 1584
 3070 3091 3113 3138 3169 3217 3270 3368 3502 3494 3478 3461 3446 3425 3394 3363 3342 3331 3326 3319 3313 3307 3299 3289 3285 3282 3271 3266 3284 3276 3229 3184 3149 3123 3111 3105 3103 3095 3071 3034 2999 2980 2972 2976 2990 3009 3020 3017 3022 3024 3020 3036 3068 3095 3077 3022 2995 2976 2908 2858 2828 2793 2761 2723 2689 2650 2606 2560 2511 2449 2356 2306 2258 2220 2191 2171 2170 2172 2176 2181 2184 2186 2190 2193 2197 2200 2202 2206 2207 2210 2214 2218 2222 2229 2231 2234 2236 2235 2237 2237 2236 2237 2239 2240 2238 2238 2234 2232 2240 2271 2308 2346 2401 2453 2503 2556 2598 2660 2716 2750 2748 2722 2694 2683 2668 2660 2652 2646 2637 2624 2613 2612 2609 2603 2597 2590 2570 2541 2507 2472 2427 2407 2396 2381 2360 2334 2297 2254 2209 2181 2159 2149 2136 2119 2099 2055 2025 1994 1943 1886 1835 1793 1739 1681 1634 1580 1535 1490 1441 1407 1365 1326 1290 1256 1238 1248 1262 1272 1290 1317 1350 1395 1418 1428 1450 1471 1482 1501 1517 1532 1544 1559
 3073 3097 3117 3139 3174 3257 3328 3409 3471 3488 3463 3449 3427 3405 3384 3353 3328 3317 3314 3308 3301 3294 3285 3279 3273 3267 3258 3246 3230 3229 3227 3203 3155 3117 3103 3093 3084 3070 3039 3008 2973 2948 2936 2936 2947 2967 2981 2986 2989 2989 2984 2993 3011 3031 3003 2950 2915 2877 2831 2800 2785 2754 2704 2677 2643 2599 2556 2505 2432 2349 2287 2244 2211 2182 2163 2153 2161 2168 2173 2178 2181 2185 2190 2193 2193 2195 2198 2203 2206 2209 2211 2218 2222 2227 2228 2229 2231 2229 2229 2230 2230 2229 2231 2231 2230 2228 2225 2225 2243 2282 2320 2366 2412 2474 2526 2570 2613 2663 2716 2774 2822 2817 2790 2754 2725 2714 2715 2696 2671 2656 2637 2623 2605 2588 2570 2543 2519 2483 2460 2434 2407 2389 2373 2356 2343 2323 2292 2255 2226 2218 2224 2236 2208 2174 2146 2090 2045 2001 1960 1893 1853 1799 1757 1695 1637 1577 1537 1492 1439 1398 1355 1315 1275 1242 1221 1222 1237 1255 1280 1310 1338 1363 1385 1407 1434 1454 1465 1480 1494 1508 1525 1539
 3082 3102 3131 3184 3249 3325 3390 3459 3511 3493 3458 3435 3414 3394 3376 3353 3323 3305 3302 3298 3291 3279 3270 3265 3257 3254 3243 3227 3210 3194 3188 3201 3188 3119 3090 3071 3052 3036 3007 2972 2929 2903 2895 2899 2915 2931 2944 2955 2959 2959 2958 2956 2970 2984 2933 2898 2868 2830 2785 2755 2738 2725 2685 2648 2589 2542 2475 2407 2354 2294 2249 2215 2184 2158 2144 2143 2155 2162 2167 2175 2179 2181 2185 2188 2189 2190 2194 2198 2202 2206 2210 2214 2217 2221 2221 2219 2220 2221 2223 2224 2225 2223 2224 2225 2223 2220 2219 2239 2271 2299 2342 2391 2438 2487 2544 2579 2623 2686 2738 2790 2843 2880 2872 2849 2823 2791 2744 2697 2661 2636 2613 2597 2578 2562 2531 2503 2479 2458 2440 2426 2403 2376 2354 2342 2330 2311 2286 2272 2287 2299 2284 2247 2211 2164 2128 2077 2026 1975 1929 1881 1824 1771 1717 1667 1628 1585 1537 1485 1437 1393 1350 1310 1270 1236 1211 1204 1219 1243 1272 1285 1295 1315 1347 1382 1415 1431 1444 1457 1471 1485 1497 1511
 3109 3202 3275 3313 3377 3439 3456 3482 3491 3469 3443 3422 3401 3384 3367 3338 3304 3285 3285 3279 3271 3258 3249 3247 3243 3237 3223 3205 3185 3168 3154 3152 3153 3110 3056 3035 3014 2991 2963 2937 2907 2884 2866 2866 2874 2886 2903 2912 2921 2925 2922 2920 2927 2944 2918 2871 2825 2787 2746 2714 2693 2673 2652 2598 2542 2481 2404 2342 2301 2263 2226 2186 2161 2141 2133 2141 2150 2157 2160 2166 2170 2173 2179 2181 2181 2185 2191 2192 2196 2200 2205 2208 2212 2215 2214 2211 2213 2218 2216 2217 2218 2219 2220 2217 2215 2219 2239 2272 2306 2339 2377 2410 2463 2509 2549 2593 2640 2697 2753 2799 2830 2852 2876 2857 2819 2765 2721 2678 2639 2618 2599 2580 2554 2538 2517 2490 2469 2459 2438 2415 2390 2365 2346 2330 2318 2305 2309 2318 2321 2301 2259 2219 2179 2139 2090 2041 1988 1934 1885 1840 1796 1752 1721 1676 1638 1593 1553 1491 1443 1389 1345 1311 1267 1244 1215 1195 1208 1236 1257 1266 1267 1277 1302 1343 1380 1402 1417 1429 1442 1455 1466 1485
 3278 3317 3369 3411 3458 3489 3483 3465 3429 3416 3408 3397 3386 3370 3349 3318 3281 3269 3264 3259 3250 3237 3230 3228 3225 3213 3198 3181 3161 3141 3128 3119 3115 3107 3062 3026 2988 2956 2927 2914 2899 2886 2868 2852 2840 2848 2861 2869 2875 2882 2880 2878 2887 2897 2906 2867 2786 2758 2723 2679 2647 2620 2596 2542 2491 2428 2346 2290 2262 2229 2191 2158 2140 2126 2128 2139 2147 2150 2153 2156 2161 2165 2170 2169 2171 2171 2177 2185 2187 2191 2197 2200 2202 2204 2202 2200 2203 2208 2206 2209 2208 2207 2208 2217 2239 2260 2287 2311 2340 2373 2403 2435 2482 2517 2553 2592 2636 2683 2729 2762 2786 2813 2840 2816 2757 2722 2700 2679 2647 2617 2600 2590 2574 2545 2528 2504 2473 2456 2434 2408 2381 2365 2354 2351 2352 2348 2352 2327 2306 2277 2236 2194 2159 2116 2074 2038 1998 1951 1911 1865 1834 1802 1762 1717 1677 1622 1572 1518 1468 1404 1347 1307 1261 1231 1202 1183 1199 1222 1240 1249 1248 1253 1269 1300 1337 1367 1389 1399 1408 1422 1438 1455
 3310 3314 3329 3360 3383 3426 3459 3435 3403 3377 3366 3362 3357 3346 3328 3290 3262 3252 3244 3237 3227 3215 3208 3203 3196 3179 3169 3155 3138 3122 3109 3099 3088 3080 3067 3022 2970 2935 2903 2889 2885 2877 2861 2845 2830 2819 2821 2831 2832 2830 2832 2838 2850 2858 2871 2878 2818 2740 2691 2658 2603 2561 2531 2492 2449 2381 2291 2253 2222 2191 2162 2142 2126 2118 2125 2134 2140 2147 2147 2147 2152 2157 2156 2154 2159 2161 2167 2176 2183 2184 2188 2190 2193 2195 2196 2195 2196 2198 2198 2199 2200 2201 2218 2252 2279 2301 2330 2345 2363 2391 2424 2466 2502 2534 2565 2602 2635 2672 2700 2735 2774 2816 2834 2787 2729 2710 2701 2678 2648 2622 2602 2595 2581 2555 2527 2500 2465 2442 2429 2426 2422 2412 2384 2372 2364 2354 2340 2313 2286 2254 2220 2181 2150 2118 2079 2043 2002 1953 1913 1873 1837 1793 1751 1710 1670 1622 1567 1516 1455 1395 1344 1296 1261 1224 1194 1172 1175 1198 1217 1223 1228 1235 1248 1273 1299 1318 1342 1362 1383 1395 1410 1431
 3239 3240 3259 3309 3327 3362 3426 3437 3417 3366 3335 3320 3317 3313 3294 3253 3233 3224 3219 3211 3205 3198 3186 3178 3167 3151 3136 3123 3108 3089 3077 3062 3047 3040 3041 3027 2957 2918 2893 2869 2857 2849 2843 2834 2826 2803 2786 2791 2799 2790 2784 2793 2809 2816 2823 2842 2823 2758 2700 2646 2579 2523 2487 2434 2395 2334 2269 2226 2192 2167 2147 2130 2113 2116 2126 2132 2136 2140 2143 2145 2148 2149 2147 2146 2149 2152 2158 2165 2170 2177 2180 2183 2185 2185 2187 2188 2188 2190 2188 2189 2201 2223 2253 2284 2308 2338 2360 2373 2389 2418 2460 2486 2516 2540 2567 2600 2633 2672 2714 2756 2810 2847 2844 2804 2748 2727 2696 2667 2635 2614 2598 2584 2564 2542 2520 2497 2476 2462 2454 2444 2428 2407 2377 2349 2330 2315 2302 2287 2265 2234 2204 2169 2131 2091 2047 2010 1966 1925 1882 1841 1804 1767 1724 1689 1648 1616 1577 1531 1472 1429 1360 1313 1267 1228 1201 1169 1158 1175 1188 1189 1195 1201 1217 1237 1253 1267 1296 1327 1357 1378 1385 1400
 3174 3186 3206 3250 3264 3300 3381 3425 3421 3365 3318 3294 3283 3276 3261 3235 3201 3188 3182 3179 3170 3164 3154 3142 3128 3110 3089 3075 3060 3047 3035 3024 3016 3005 3000 3003 2958 2909 2880 2855 2830 2818 2812 2806 2798 2782 2762 2760 2772 2766 2755 2756 2761 2770 2783 2804 2820 2781 2711 2644 2545 2492 2450 2393 2349 2293 2251 2208 2182 2153 2133 2113 2109 2117 2124 2130 2133 2133 2137 2141 2142 2142 2139 2140 2144 2148 2155 2159 2163 2169 2173 2174 2176 2180 2181 2179 2178 2179 2183 2201 2228 2261 2291 2321 2348 2371 2390 2409 2430 2450 2482 2511 2531 2551 2573 2601 2639 2683 2738 2793 2838 2863 2847 2798 2745 2698 2664 2637 2607 2591 2576 2569 2552 2533 2519 2509 2494 2473 2452 2435 2413 2390 2356 2319 2296 2277 2271 2265 2249 2217 2181 2142 2112 2075 2039 1999 1959 1927 1904 1870 1830 1779 1740 1710 1667 1631 1598 1558 1507 1460 1379 1329 1290 1242 1205 1174 1151 1160 1164 1163 1162 1170 1188 1194 1201 1224 1254 1286 1323 1354 1374 1382
 3110 3135 3166 3199 3214 3274 3335 3388 3388 3335 3293 3267 3250 3241 3229 3211 3164 3149 3144 3140 3138 3130 3114 3100 3088 3070 3051 3035 3014 3000 2997 2989 2980 2962 2950 2971 2984 2913 2866 2843 2822 2800 2787 2777 2770 2756 2739 2730 2736 2735 2723 2721 2719 2724 2739 2759 2795 2780 2718 2649 2535 2485 2431 2367 2317 2276 2247 2204 2181 2148 2123 2108 2112 2117 2121 2127 2127 2131 2134 2136 2138 2137 2136 2137 2141 2147 2154 2154 2154 2159 2164 2167 2170 2170 2169 2169 2169 2183 2206 2234 2263 2287 2312 2346 2378 2415 2440 2458 2468 2485 2503 2519 2537 2558 2583 2614 2651 2686 2745 2807 2855 2858 2818 2790 2716 2657 2636 2609 2581 2566 2557 2549 2535 2522 2510 2498 2475 2451 2423 2401 2376 2353 2325 2294 2266 2243 2235 2227 2216 2190 2151 2113 2087 2058 2037 2006 1966 1926 1897 1870 1835 1801 1773 1736 1694 1667 1625 1584 1519 1464 1414 1364 1311 1272 1224 1186 1150 1140 1137 1136 1135 1144 1158 1162 1166 1188 1218 1248 1281 1323 1360 1371
 3062 3094 3125 3149 3194 3239 3268 3319 3322 3300 3266 3243 3225 3203 3188 3163 3114 3100 3092 3088 3087 3079 3071 3060 3051 3036 3019 2997 2976 2962 2954 2943 2925 2911 2908 2909 2934 2917 2868 2829 2804 2782 2764 2750 2737 2716 2695 2685 2688 2689 2685 2683 2682 2686 2700 2721 2759 2754 2719 2657 2554 2483 2416 2364 2343 2308 2257 2209 2172 2143 2120 2111 2114 2115 2120 2121 2123 2128 2129 2131 2131 2131 2131 2135 2141 2142 2147 2149 2152 2152 2153 2155 2155 2154 2153 2158 2177 2204 2234 2264 2284 2301 2325 2361 2414 2449 2469 2487 2504 2517 2529 2540 2556 2581 2606 2635 2662 2707 2768 2820 2835 2816 2773 2741 2692 2647 2621 2592 2560 2542 2532 2513 2497 2480 2465 2448 2432 2407 2383 2356 2333 2308 2286 2260 2233 2209 2191 2179 2171 2155 2127 2091 2059 2029 2002 1966 1935 1902 1878 1855 1831 1807 1781 1748 1723 1677 1630 1584 1531 1476 1443 1407 1356 1298 1248 1196 1156 1133 1125 1122 1121 1130 1140 1140 1140 1157 1179 1212 1250 1290 1331 1363
 3016 3035 3065 3105 3152 3190 3206 3240 3244 3265 3249 3208 3189 3170 3147 3121 3081 3058 3044 3038 3037 3033 3017 3007 2998 2991 2978 2962 2949 2932 2918 2906 2886 2867 2851 2848 2864 2880 2871 2816 2779 2761 2744 2727 2706 2675 2653 2642 2642 2645 2641 2643 2640 2648 2656 2680 2712 2718 2684 2620 2543 2461 2385 2365 2355 2333 2281 2256 2189 2150 2118 2111 2113 2116 2116 2117 2121 2123 2125 2126 2127 2129 2129 2133 2137 2139 2140 2142 2143 2144 2143 2143 2142 2138 2143 2163 2194 2226 2250 2273 2296 2327 2363 2409 2453 2489 2503 2523 2532 2538 2550 2569 2586 2604 2631 2656 2689 2732 2767 2760 2735 2709 2680 2664 2656 2631 2608 2580 2550 2523 2508 2489 2465 2439 2421 2402 2381 2359 2334 2307 2287 2263 2239 2214 2196 2165 2144 2126 2111 2101 2090 2072 2043 2012 1977 1935 1905 1876 1851 1830 1812 1791 1762 1741 1717 1674 1633 1589 1543 1507 1474 1431 1375 1322 1259 1218 1170 1145 1130 1118 1114 1118 1118 1114 1115 1128 1148 1180 1223 1266 1306 1345
 2963 2981 3008 3059 3100 3129 3167 3199 3207 3228 3231 3194 3159 3141 3125 3099 3060 3027 3009 2999 2987 2977 2968 2964 2955 2946 2932 2920 2913 2903 2890 2874 2855 2834 2815 2807 2814 2836 2865 2821 2771 2742 2728 2710 2689 2660 2630 2609 2601 2598 2597 2600 2604 2606 2614 2623 2651 2668 2647 2590 2507 2432 2394 2367 2350 2331 2313 2284 2233 2166 2128 2110 2110 2111 2111 2115 2118 2119 2120 2120 2122 2121 2124 2127 2131 2133 2133 2137 2137 2138 2138 2133 2129 2135 2153 2178 2209 2239 2264 2294 2327 2367 2411 2455 2491 2515 2536 2545 2552 2558 2571 2585 2603 2624 2654 2688 2736 2740 2708 2674 2651 2632 2616 2605 2593 2587 2578 2566 2545 2521 2489 2468 2449 2423 2396 2370 2348 2326 2306 2279 2246 2214 2186 2159 2140 2115 2089 2080 2062 2047 2033 2021 2004 1983 1952 1920 1900 1867 1832 1797 1777 1756 1736 1717 1681 1643 1604 1564 1519 1481 1443 1407 1368 1322 1275 1239 1194 1144 1125 1113 1109 1109 1107 1105 1106 1115 1135 1165 1200 1238 1280 1319
 2913 2931 2958 3014 3062 3097 3145 3171 3205 3236 3239 3187 3141 3115 3095 3071 3042 3004 2974 2958 2950 2941 2923 2910 2898 2888 2882 2875 2869 2860 2849 2841 2827 2811 2793 2779 2775 2789 2817 2813 2774 2737 2709 2695 2683 2660 2624 2591 2574 2565 2559 2561 2563 2560 2564 2570 2589 2602 2589 2559 2476 2419 2392 2362 2336 2328 2319 2288 2249 2181 2132 2108 2109 2109 2110 2112 2114 2114 2114 2115 2115 2115 2117 2121 2125 2127 2129 2131 2130 2131 2130 2127 2127 2149 2172 2195 2223 2255 2282 2327 2370 2405 2445 2482 2517 2546 2564 2573 2570 2582 2601 2628 2658 2693 2720 2745 2740 2695 2655 2629 2598 2579 2569 2569 2559 2545 2539 2536 2536 2527 2489 2452 2434 2411 2383 2357 2327 2302 2283 2264 2230 2189 2150 2119 2085 2061 2039 2023 2012 2007 1985 1966 1959 1946 1924 1902 1878 1845 1820 1796 1765 1733 1699 1677 1648 1614 1572 1533 1490 1457 1429 1407 1380 1337 1299 1256 1203 1155 1120 1106 1108 1104 1103 1100 1099 1110 1131 1153 1184 1216 1249 1282
 2869 2894 2945 2995 3017 3053 3107 3137 3195 3245 3249 3187 3131 3085 3057 3040 3015 2980 2950 2931 2920 2902 2884 2865 2857 2848 2836 2828 2819 2806 2800 2798 2788 2779 2768 2760 2754 2757 2774 2786 2784 2736 2698 2680 2663 2638 2611 2578 2555 2544 2534 2530 2514 2507 2510 2510 2506 2527 2531 2499 2441 2408 2388 2354 2328 2321 2324 2302 2251 2204 2133 2110 2102 2103 2107 2109 2109 2111 2113 2110 2111 2113 2115 2117 2118 2123 2123 2123 2123 2125 2117 2116 2129 2153 2182 2208 2233 2274 2314 2350 2390 2431 2463 2504 2540 2577 2616 2649 2664 2668 2680 2688 2708 2715 2725 2719 2689 2651 2628 2600 2572 2556 2545 2540 2528 2518 2511 2506 2506 2506 2489 2458 2439 2421 2383 2361 2337 2301 2278 2264 2238 2200 2155 2130 2084 2036 1996 1963 1951 1947 1937 1922 1904 1899 1890 1871 1841 1804 1773 1747 1735 1709 1683 1664 1639 1614 1588 1555 1534 1510 1475 1439 1395 1348 1302 1255 1212 1161 1112 1099 1099 1102 1101 1099 1099 1104 1120 1152 1191 1223 1259 1296
 2837 2869 2902 2945 2978 3018 3056 3115 3141 3174 3215 3181 3125 3069 3029 3006 2980 2957 2925 2904 2891 2877 2859 2843 2833 2817 2802 2784 2771 2757 2752 2747 2744 2739 2737 2728 2718 2723 2736 2745 2784 2760 2704 2679 2655 2629 2594 2569 2546 2531 2516 2498 2473 2454 2440 2425 2424 2441 2463 2448 2419 2399 2392 2352 2312 2310 2316 2292 2257 2215 2138 2102 2097 2099 2102 2105 2107 2107 2108 2104 2105 2107 2112 2112 2116 2115 2116 2116 2115 2107 2104 2117 2146 2171 2191 2224 2265 2306 2341 2366 2409 2447 2480 2519 2560 2601 2651 2702 2742 2767 2764 2751 2709 2686 2672 2651 2627 2615 2605 2586 2565 2549 2544 2537 2512 2502 2495 2488 2485 2480 2473 2465 2464 2446 2401 2374 2351 2327 2296 2273 2244 2217 2182 2146 2097 2051 2014 1964 1920 1893 1882 1870 1849 1837 1830 1818 1781 1741 1714 1688 1666 1651 1636 1624 1606 1590 1577 1559 1537 1501 1460 1415 1367 1324 1281 1242 1198 1148 1110 1100 1098 1098 1097 1095 1095 1102 1116 1149 1199 1235 1273 1319
 2812 2833 2855 2872 2893 2932 2984 3022 3076 3126 3152 3161 3114 3052 3013 2971 2943 2924 2897 2871 2856 2845 2826 2817 2807 2782 2766 2750 2735 2721 2712 2700 2695 2692 2693 2689 2683 2697 2700 2691 2748 2769 2723 2687 2651 2624 2588 2559 2533 2509 2485 2460 2439 2415 2370 2352 2348 2357 2384 2396 2393 2382 2377 2333 2291 2298 2302 2281 2236 2195 2114 2091 2093 2095 2100 2102 2102 2104 2103 2098 2100 2101 2103 2105 2109 2108 2107 2102 2098 2091 2109 2132 2153 2179 2212 2248 2282 2319 2351 2384 2428 2470 2502 2540 2581 2641 2690 2742 2797 2820 2806 2741 2675 2644 2617 2594 2588 2596 2596 2569 2552 2540 2538 2529 2505 2488 2477 2471 2470 2465 2453 2444 2451 2439 2398 2388 2379 2339 2306 2278 2234 2201 2173 2133 2091 2053 2022 1982 1942 1909 1884 1850 1818 1779 1750 1725 1704 1681 1654 1621 1599 1581 1562 1553 1542 1542 1539 1542 1523 1490 1450 1400 1351 1314 1263 1217 1179 1136 1097 1097 1096 1093 1091 1093 1096 1104 1117 1146 1192 1237 1279 1322
 2746 2764 2775 2802 2833 2862 2906 2950 2987 3048 3098 3118 3102 3054 2989 2935 2904 2877 2859 2835 2823 2809 2793 2782 2764 2747 2731 2714 2701 2686 2675 2661 2648 2642 2642 2643 2647 2659 2656 2650 2681 2739 2737 2703 2653 2617 2579 2550 2517 2477 2447 2426 2401 2361 2322 2306 2302 2305 2324 2352 2356 2358 2339 2305 2276 2284 2274 2245 2204 2165 2094 2085 2088 2089 2093 2096 2097 2099 2097 2094 2092 2094 2094 2097 2100 2097 2092 2084 2078 2088 2112 2133 2163 2196 2227 2254 2293 2331 2377 2414 2448 2486 2519 2556 2598 2659 2718 2766 2812 2816 2771 2703 2636 2603 2579 2564 2561 2568 2562 2541 2528 2524 2523 2513 2498 2483 2466 2453 2448 2446 2434 2423 2423 2425 2414 2406 2387 2342 2313 2276 2233 2196 2159 2116 2074 2036 1999 1969 1939 1912 1879 1839 1798 1749 1700 1667 1642 1613 1592 1561 1537 1516 1500 1482 1467 1460 1465 1489 1493 1474 1444 1400 1355 1309 1260 1209 1163 1122 1092 1092 1092 1092 1091 1092 1103 1112 1124 1150 1196 1245 1299 1337
 2651 2670 2700 2737 2781 2803 2828 2873 2905 2972 3055 3094 3099 3054 3002 2940 2883 2853 2832 2812 2792 2774 2757 2742 2726 2710 2694 2676 2658 2639 2623 2612 2603 2597 2592 2593 2599 2617 2611 2614 2662 2709 2718 2689 2647 2611 2572 2539 2507 2472 2430 2402 2371 2337 2301 2285 2272 2263 2272 2301 2313 2321 2306 2257 2240 2247 2225 2194 2156 2111 2080 2080 2083 2084 2089 2094 2094 2096 2092 2090 2086 2085 2086 2086 2084 2083 2078 2069 2065 2082 2114 2147 2179 2212 2240 2272 2312 2356 2404 2434 2469 2504 2538 2576 2627 2672 2722 2786 2832 2821 2750 2649 2599 2574 2559 2545 2540 2542 2530 2520 2516 2519 2514 2498 2479 2465 2448 2433 2419 2416 2412 2403 2405 2418 2418 2403 2376 2350 2310 2269 2225 2184 2146 2101 2058 2026 1993 1961 1924 1884 1844 1808 1774 1730 1676 1642 1624 1608 1588 1571 1554 1536 1519 1489 1456 1424 1401 1416 1444 1435 1414 1382 1342 1293 1248 1201 1153 1116 1090 1087 1086 1088 1094 1104 1120 1127 1137 1161 1203 1250 1303 1345
 2567 2599 2618 2648 2695 2739 2794 2833 2870 2923 3022 3062 3067 3044 2994 2922 2871 2843 2819 2805 2790 2763 2736 2709 2692 2672 2654 2639 2614 2592 2562 2548 2542 2539 2538 2547 2559 2565 2564 2579 2636 2676 2689 2669 2632 2589 2557 2537 2510 2470 2438 2398 2360 2316 2280 2253 2235 2228 2227 2246 2251 2257 2232 2204 2199 2192 2170 2136 2095 2073 2066 2069 2071 2077 2085 2088 2087 2088 2085 2082 2079 2076 2076 2074 2072 2070 2064 2056 2065 2097 2131 2162 2193 2228 2259 2294 2335 2380 2417 2455 2492 2523 2558 2599 2636 2685 2742 2802 2840 2822 2714 2609 2572 2555 2548 2540 2527 2526 2527 2523 2518 2519 2513 2490 2471 2448 2430 2415 2400 2393 2386 2382 2387 2397 2398 2382 2351 2318 2282 2240 2201 2167 2129 2088 2046 2012 1982 1950 1921 1897 1874 1847 1807 1759 1734 1707 1676 1648 1623 1601 1585 1569 1550 1531 1509 1471 1421 1381 1378 1381 1359 1324 1315 1286 1234 1185 1145 1107 1087 1087 1085 1085 1098 1112 1118 1128 1145 1175 1214 1265 1311 1351
 2495 2528 2562 2588 2630 2684 2757 2808 2859 2918 2972 3013 3037 3022 2957 2900 2879 2842 2802 2787 2784 2771 2739 2691 2658 2637 2611 2590 2563 2523 2491 2485 2479 2483 2490 2503 2515 2523 2522 2543 2601 2636 2662 2647 2610 2569 2542 2528 2505 2480 2441 2407 2363 2306 2258 2222 2195 2188 2183 2186 2184 2181 2164 2154 2145 2130 2115 2086 2072 2062 2055 2056 2061 2068 2072 2077 2079 2079 2076 2072 2066 2064 2063 2062 2058 2055 2052 2060 2085 2127 2154 2180 2208 2237 2279 2314 2350 2391 2436 2473 2508 2545 2578 2622 2663 2721 2774 2821 2840 2789 2698 2594 2567 2548 2540 2537 2527 2521 2519 2514 2505 2503 2496 2479 2467 2444 2409 2391 2382 2370 2358 2354 2354 2356 2356 2350 2321 2289 2256 2216 2177 2148 2116 2079 2048 2024 1996 1965 1941 1921 1898 1869 1838 1800 1767 1730 1693 1653 1615 1583 1552 1534 1515 1498 1489 1477 1440 1407 1373 1352 1317 1284 1267 1248 1215 1179 1135 1098 1087 1085 1083 1081 1091 1100 1110 1138 1166 1200 1242 1284 1329 1355
 2427 2465 2515 2562 2600 2662 2726 2772 2812 2883 2914 2951 2957 2954 2918 2891 2879 2837 2785 2772 2764 2750 2718 2678 2639 2608 2578 2549 2501 2458 2440 2431 2428 2428 2439 2457 2471 2480 2492 2536 2566 2592 2616 2605 2576 2540 2520 2504 2482 2456 2433 2398 2363 2313 2249 2213 2181 2158 2145 2133 2133 2129 2122 2110 2096 2093 2078 2056 2049 2046 2039 2039 2046 2055 2062 2067 2068 2066 2063 2061 2057 2057 2056 2055 2051 2048 2054 2096 2131 2151 2170 2190 2216 2251 2290 2322 2369 2407 2447 2486 2523 2569 2615 2660 2705 2751 2799 2831 2815 2747 2685 2628 2583 2542 2532 2532 2529 2520 2507 2500 2488 2476 2464 2448 2438 2425 2399 2371 2351 2335 2330 2325 2314 2305 2295 2293 2281 2262 2238 2202 2164 2136 2112 2088 2062 2037 2007 1982 1952 1926 1903 1875 1844 1816 1790 1750 1712 1673 1633 1600 1574 1539 1501 1471 1448 1434 1420 1407 1392 1357 1318 1279 1239 1215 1184 1153 1121 1105 1093 1087 1085 1082 1082 1092 1121 1159 1191 1231 1266 1304 1336 1345
 2341 2379 2434 2498 2552 2601 2653 2690 2727 2768 2801 2836 2856 2862 2855 2857 2845 2812 2777 2759 2738 2712 2678 2644 2614 2585 2555 2524 2472 2430 2405 2391 2386 2387 2395 2415 2429 2440 2460 2503 2540 2566 2574 2565 2544 2513 2499 2480 2456 2435 2417 2383 2353 2319 2249 2190 2153 2124 2108 2104 2103 2092 2084 2072 2065 2059 2034 2025 2026 2019 2014 2023 2032 2042 2050 2053 2054 2052 2052 2051 2049 2048 2051 2050 2047 2046 2073 2120 2160 2175 2192 2207 2233 2268 2299 2335 2378 2415 2457 2500 2547 2591 2642 2689 2733 2779 2819 2819 2769 2718 2673 2642 2598 2538 2529 2528 2524 2511 2496 2486 2475 2452 2435 2420 2406 2391 2377 2359 2343 2321 2307 2292 2276 2259 2250 2246 2242 2231 2210 2180 2151 2126 2106 2087 2059 2035 2010 1986 1957 1928 1901 1872 1843 1822 1794 1756 1717 1686 1658 1631 1598 1566 1529 1496 1466 1438 1407 1378 1363 1350 1325 1280 1237 1199 1159 1141 1125 1116 1105 1091 1086 1083 1081 1104 1143 1182 1214 1249 1291 1326 1338 1327
 2296 2295 2335 2405 2477 2527 2564 2595 2631 2677 2712 2742 2772 2786 2793 2796 2797 2792 2769 2730 2698 2671 2639 2610 2576 2546 2518 2487 2452 2407 2382 2366 2357 2351 2357 2377 2391 2409 2438 2472 2512 2534 2541 2533 2524 2493 2476 2454 2428 2415 2391 2356 2327 2296 2220 2148 2113 2099 2079 2080 2068 2061 2054 2039 2033 2011 1992 1981 1980 1989 2001 2016 2024 2033 2037 2038 2042 2041 2042 2043 2042 2044 2047 2046 2042 2055 2110 2161 2187 2199 2212 2236 2254 2285 2319 2358 2395 2432 2476 2518 2558 2606 2662 2715 2760 2812 2822 2774 2723 2669 2623 2602 2571 2535 2522 2519 2508 2494 2480 2469 2453 2433 2414 2401 2384 2364 2356 2347 2339 2311 2284 2267 2243 2222 2215 2210 2205 2194 2177 2158 2134 2115 2097 2072 2047 2024 2002 1979 1956 1927 1899 1872 1848 1822 1793 1760 1719 1685 1661 1630 1602 1576 1544 1517 1487 1461 1433 1395 1354 1322 1293 1263 1234 1196 1156 1133 1126 1116 1105 1091 1084 1080 1093 1126 1170 1209 1242 1277 1319 1340 1321 1301
 2276 2277 2281 2299 2345 2416 2471 2526 2563 2606 2631 2663 2705 2728 2733 2730 2729 2737 2716 2689 2653 2627 2599 2570 2543 2516 2486 2456 2434 2399 2356 2343 2331 2323 2326 2339 2363 2386 2416 2443 2474 2495 2503 2503 2494 2473 2451 2433 2405 2383 2349 2317 2292 2238 2170 2105 2082 2060 2043 2045 2046 2040 2024 2002 1987 1964 1941 1936 1955 1980 1998 2010 2015 2022 2024 2025 2028 2029 2032 2036 2037 2038 2039 2036 2036 2065 2147 2177 2194 2215 2242 2258 2282 2311 2350 2391 2421 2460 2496 2534 2570 2615 2671 2734 2789 2821 2802 2747 2682 2629 2584 2551 2530 2515 2510 2501 2488 2476 2465 2457 2442 2418 2396 2381 2362 2346 2336 2323 2309 2287 2264 2244 2221 2206 2195 2183 2165 2155 2147 2137 2118 2100 2079 2054 2032 2012 1991 1971 1948 1920 1893 1868 1845 1817 1782 1753 1716 1674 1646 1612 1575 1549 1527 1502 1479 1451 1422 1383 1340 1303 1274 1239 1202 1167 1136 1121 1116 1106 1096 1084 1078 1082 1111 1155 1197 1233 1272 1303 1325 1326 1298 1274
 2259 2262 2265 2274 2287 2324 2380 2433 2481 2514 2547 2572 2616 2659 2670 2663 2655 2657 2644 2622 2603 2592 2571 2542 2512 2483 2456 2429 2403 2376 2339 2320 2311 2304 2301 2311 2336 2360 2387 2415 2436 2453 2466 2467 2459 2442 2414 2391 2362 2326 2289 2248 2203 2150 2104 2059 2037 2017 2017 2021 2019 2007 1978 1952 1938 1935 1936 1942 1957 1976 1991 2001 2007 2015 2018 2017 2020 2021 2023 2028 2030 2029 2027 2022 2029 2084 2150 2175 2208 2235 2264 2287 2322 2345 2379 2414 2449 2483 2519 2554 2591 2647 2701 2755 2802 2793 2760 2707 2649 2601 2552 2531 2518 2502 2491 2477 2471 2461 2452 2439 2419 2395 2377 2363 2347 2327 2309 2288 2270 2259 2249 2231 2214 2208 2184 2153 2124 2109 2105 2102 2094 2079 2057 2036 2016 1996 1972 1950 1927 1904 1887 1859 1836 1804 1774 1735 1691 1642 1606 1583 1547 1515 1484 1466 1452 1425 1385 1345 1306 1291 1275 1235 1196 1156 1121 1107 1101 1099 1093 1081 1079 1098 1134 1170 1208 1247 1285 1314 1322 1303 1279 1250
 2257 2257 2252 2258 2261 2263 2287 2336 2399 2447 2481 2495 2524 2547 2575 2592 2583 2571 2566 2556 2550 2550 2550 2538 2504 2464 2438 2414 2390 2362 2331 2308 2295 2286 2280 2283 2301 2331 2357 2381 2405 2419 2425 2427 2425 2405 2370 2333 2282 2243 2190 2156 2124 2097 2059 2010 1993 1982 1985 1975 1963 1952 1934 1926 1936 1942 1946 1953 1963 1974 1986 1993 1999 2005 2010 2013 2015 2016 2018 2018 2018 2017 2013 2008 2033 2096 2142 2189 2242 2277 2308 2330 2354 2384 2414 2444 2473 2508 2541 2578 2624 2668 2717 2769 2783 2740 2699 2655 2620 2574 2533 2522 2503 2487 2468 2457 2454 2441 2432 2415 2396 2379 2368 2348 2323 2299 2274 2254 2240 2233 2229 2223 2218 2208 2176 2133 2092 2066 2051 2050 2051 2042 2026 2011 1995 1972 1950 1920 1897 1881 1868 1839 1812 1786 1748 1711 1662 1615 1570 1538 1509 1480 1452 1426 1409 1383 1344 1308 1290 1280 1252 1212 1175 1134 1098 1087 1085 1085 1083 1076 1082 1109 1146 1187 1227 1271 1299 1307 1298 1276 1251 1226
 2251 2250 2239 2240 2246 2256 2258 2273 2305 2392 2422 2439 2445 2448 2457 2474 2480 2483 2488 2479 2478 2483 2492 2501 2490 2465 2428 2402 2375 2348 2317 2294 2279 2270 2264 2263 2273 2302 2329 2351 2376 2386 2385 2387 2381 2349 2305 2245 2199 2148 2112 2084 2058 2040 1997 1972 1955 1942 1936 1917 1914 1914 1919 1928 1939 1946 1954 1960 1966 1974 1983 1991 1996 2001 2004 2007 2008 2008 2010 2011 2010 2006 2003 1999 2032 2103 2158 2212 2261 2300 2337 2366 2395 2418 2447 2473 2502 2533 2568 2608 2645 2678 2718 2735 2718 2664 2627 2605 2581 2545 2531 2512 2489 2467 2447 2438 2429 2416 2404 2391 2380 2371 2360 2325 2296 2269 2248 2233 2221 2215 2213 2211 2205 2191 2162 2127 2085 2048 2023 2012 2000 1990 1977 1968 1954 1934 1913 1885 1862 1850 1837 1813 1792 1750 1711 1682 1650 1604 1547 1502 1472 1440 1418 1388 1361 1338 1305 1287 1282 1266 1230 1190 1150 1113 1085 1076 1075 1073 1074 1076 1083 1116 1161 1205 1244 1283 1297 1282 1266 1245 1222 1207
 2247 2244 2240 2231 2231 2236 2245 2251 2262 2326 2389 2399 2386 2371 2353 2351 2367 2391 2396 2399 2401 2415 2430 2436 2440 2429 2406 2385 2364 2334 2303 2276 2256 2253 2248 2247 2251 2277 2304 2328 2342 2345 2338 2334 2321 2287 2233 2132 2100 2071 2035 2013 1984 1976 1945 1920 1895 1891 1897 1901 1904 1910 1921 1930 1939 1947 1955 1964 1971 1979 1985 1991 1996 1998 1999 2001 2003 2003 2005 2007 2004 1999 1992 2002 2047 2115 2179 2226 2266 2306 2340 2376 2408 2440 2475 2510 2538 2567 2593 2616 2634 2654 2675 2669 2626 2580 2572 2557 2533 2521 2508 2485 2463 2437 2418 2406 2393 2382 2377 2374 2364 2351 2326 2295 2270 2250 2232 2219 2212 2205 2197 2183 2169 2152 2136 2112 2087 2055 2027 2007 1978 1949 1926 1911 1902 1887 1867 1853 1836 1820 1808 1784 1751 1719 1686 1668 1641 1596 1541 1496 1460 1413 1376 1351 1324 1305 1291 1270 1245 1227 1196 1162 1126 1092 1070 1068 1065 1067 1069 1076 1104 1142 1178 1214 1257 1288 1278 1255 1233 1212 1198 1186
 2253 2244 2238 2231 2224 2227 2231 2234 2236 2247 2362 2383 2358 2317 2294 2282 2270 2287 2300 2307 2321 2332 2351 2365 2379 2383 2368 2352 2339 2316 2285 2260 2241 2233 2232 2231 2236 2255 2283 2306 2310 2303 2295 2292 2273 2221 2131 2071 2039 2005 1968 1942 1915 1897 1887 1878 1873 1885 1895 1905 1909 1915 1925 1934 1942 1951 1958 1966 1973 1979 1983 1985 1983 1988 1989 1990 1993 1994 1997 1996 1992 1988 1993 2020 2068 2124 2176 2226 2265 2303 2340 2381 2418 2459 2496 2531 2560 2578 2592 2604 2619 2637 2633 2596 2533 2518 2516 2500 2486 2477 2460 2440 2423 2402 2385 2374 2368 2366 2366 2353 2335 2311 2289 2267 2251 2238 2226 2217 2205 2190 2166 2146 2130 2118 2108 2098 2078 2057 2041 2021 1977 1933 1901 1883 1866 1842 1822 1801 1798 1778 1760 1740 1710 1680 1662 1637 1607 1578 1536 1488 1437 1396 1355 1318 1310 1290 1271 1249 1217 1182 1157 1132 1101 1074 1060 1061 1062 1066 1069 1085 1120 1154 1192 1232 1266 1272 1254 1236 1212 1190 1170 1153
 2262 2255 2248 2239 2224 2214 2220 2221 2230 2231 2321 2363 2342 2303 2258 2230 2216 2211 2214 2219 2240 2251 2275 2297 2313 2328 2324 2314 2311 2293 2263 2244 2230 2223 2219 2211 2218 2231 2258 2276 2280 2263 2262 2251 2219 2137 2072 2033 1985 1941 1910 1882 1858 1857 1864 1865 1875 1886 1897 1908 1915 1922 1929 1934 1941 1948 1956 1963 1969 1972 1975 1978 1976 1979 1978 1981 1983 1984 1985 1984 1981 1985 2008 2040 2079 2126 2176 2224 2271 2313 2356 2390 2437 2476 2508 2535 2553 2562 2573 2577 2588 2595 2569 2507 2471 2466 2459 2442 2435 2426 2416 2405 2391 2378 2368 2360 2359 2356 2340 2319 2300 2282 2266 2259 2248 2236 2222 2207 2188 2169 2146 2121 2095 2082 2073 2068 2053 2035 2015 1992 1958 1915 1880 1854 1837 1815 1787 1756 1736 1721 1702 1680 1659 1642 1627 1599 1572 1548 1504 1457 1416 1373 1338 1307 1279 1261 1251 1230 1193 1150 1120 1097 1076 1061 1056 1059 1060 1063 1074 1098 1132 1170 1211 1248 1264 1246 1222 1200 1184 1156 1130 1137
 2266 2252 2249 2243 2233 2219 2212 2204 2199 2205 2252 2323 2327 2304 2260 2226 2185 2157 2150 2149 2157 2173 2184 2208 2239 2261 2271 2271 2275 2264 2241 2222 2206 2203 2195 2188 2199 2220 2244 2252 2244 2232 2222 2201 2152 2072 2040 1997 1945 1914 1877 1856 1852 1861 1867 1870 1880 1888 1898 1910 1918 1921 1926 1932 1938 1944 1952 1954 1957 1962 1965 1964 1966 1967 1969 1971 1969 1967 1968 1975 1988 2006 2029 2054 2087 2130 2179 2225 2272 2322 2369 2406 2445 2477 2500 2515 2523 2532 2537 2541 2539 2512 2475 2442 2424 2416 2401 2396 2393 2384 2374 2368 2357 2350 2349 2350 2352 2350 2321 2297 2281 2272 2262 2252 2237 2222 2204 2183 2167 2153 2140 2122 2104 2078 2044 2027 2017 2007 1989 1964 1929 1898 1864 1824 1798 1773 1752 1737 1717 1694 1661 1642 1618 1598 1589 1575 1541 1508 1469 1430 1393 1350 1314 1288 1258 1236 1210 1189 1157 1118 1091 1074 1067 1059 1056 1058 1062 1064 1079 1112 1154 1200 1236 1252 1238 1212 1188 1169 1150 1120 1127 1161
 2325 2270 2260 2248 2239 2232 2216 2196 2178 2177 2189 2239 2281 2280 2272 2241 2193 2150 2115 2103 2094 2102 2112 2126 2161 2190 2208 2221 2227 2225 2208 2194 2193 2182 2164 2165 2186 2212 2226 2223 2208 2191 2172 2143 2091 2046 2013 1971 1925 1881 1852 1858 1863 1864 1864 1866 1878 1889 1898 1910 1917 1919 1924 1926 1929 1933 1936 1940 1943 1945 1948 1950 1953 1953 1953 1957 1958 1962 1977 1998 2011 2029 2054 2073 2106 2148 2192 2239 2299 2341 2380 2419 2454 2476 2490 2497 2500 2500 2497 2481 2471 2445 2413 2397 2383 2370 2355 2347 2345 2336 2331 2328 2329 2332 2335 2335 2332 2325 2312 2297 2284 2270 2251 2232 2216 2199 2180 2165 2155 2151 2143 2127 2111 2081 2045 2014 1992 1983 1962 1942 1922 1897 1867 1832 1800 1761 1728 1702 1685 1663 1634 1608 1590 1571 1551 1524 1494 1467 1433 1406 1385 1339 1300 1268 1242 1220 1184 1154 1124 1090 1071 1065 1061 1057 1054 1055 1058 1072 1105 1152 1195 1228 1246 1233 1201 1181 1154 1122 1106 1119 1149 1172
 2403 2372 2324 2283 2255 2246 2230 2212 2188 2167 2152 2155 2205 2244 2252 2250 2226 2187 2138 2112 2083 2062 2055 2066 2089 2112 2135 2151 2165 2176 2166 2162 2177 2150 2128 2148 2179 2202 2202 2184 2173 2160 2131 2090 2049 2010 1969 1940 1898 1857 1850 1857 1857 1859 1860 1866 1878 1890 1899 1906 1912 1912 1914 1914 1915 1918 1918 1922 1927 1927 1934 1941 1944 1947 1953 1960 1971 1989 2005 2023 2043 2063 2084 2106 2151 2196 2234 2264 2312 2355 2403 2443 2468 2481 2483 2482 2476 2468 2460 2443 2418 2382 2362 2360 2350 2331 2318 2309 2298 2293 2293 2297 2301 2300 2295 2293 2295 2298 2296 2286 2276 2254 2225 2206 2197 2186 2164 2154 2150 2144 2135 2123 2099 2073 2039 2012 1986 1959 1932 1921 1910 1887 1854 1825 1795 1770 1740 1702 1662 1629 1607 1575 1547 1529 1519 1497 1469 1435 1405 1369 1357 1339 1299 1252 1226 1193 1159 1127 1094 1077 1067 1058 1056 1054 1052 1059 1077 1111 1150 1187 1222 1239 1232 1200 1174 1147 1105 1107 1144 1179 1194 1196
 2399 2382 2366 2335 2315 2296 2288 2268 2239 2212 2180 2145 2134 2166 2211 2222 2219 2206 2182 2154 2113 2074 2042 2023 2031 2044 2070 2099 2106 2116 2114 2130 2147 2132 2105 2134 2166 2168 2162 2149 2125 2097 2069 2039 2010 1969 1922 1887 1851 1837 1841 1846 1850 1851 1857 1869 1877 1885 1890 1896 1899 1901 1903 1903 1902 1900 1899 1906 1914 1927 1941 1947 1959 1974 1984 1993 2002 2013 2031 2052 2077 2102 2128 2157 2199 2234 2263 2303 2342 2402 2442 2462 2471 2472 2461 2450 2446 2435 2420 2383 2336 2322 2326 2327 2322 2302 2285 2271 2263 2262 2265 2265 2265 2258 2255 2262 2273 2277 2269 2253 2238 2220 2196 2187 2184 2170 2160 2154 2145 2136 2117 2098 2073 2045 2014 1993 1976 1938 1900 1880 1869 1848 1822 1809 1782 1751 1725 1698 1667 1639 1601 1552 1507 1478 1460 1449 1437 1423 1386 1338 1316 1305 1279 1234 1206 1169 1137 1107 1078 1065 1058 1052 1053 1055 1067 1097 1129 1166 1193 1225 1244 1226 1199 1172 1135 1101 1113 1160 1200 1222 1224 1213
 2377 2355 2341 2329 2304 2279 2264 2249 2228 2215 2211 2187 2151 2118 2129 2167 2182 2191 2181 2157 2124 2088 2048 2011 1998 1999 2006 2031 2048 2053 2062 2089 2099 2086 2059 2089 2119 2122 2111 2081 2059 2041 2023 1995 1969 1918 1871 1844 1825 1825 1832 1836 1839 1844 1851 1860 1868 1873 1878 1887 1892 1893 1894 1893 1889 1883 1890 1906 1927 1942 1953 1970 1990 2011 2024 2025 2025 2036 2056 2081 2115 2142 2177 2202 2233 2268 2307 2351 2391 2427 2449 2454 2455 2446 2432 2414 2400 2378 2343 2305 2290 2294 2301 2310 2300 2279 2263 2253 2246 2244 2244 2242 2239 2239 2242 2242 2245 2241 2229 2216 2204 2183 2171 2170 2171 2158 2140 2130 2121 2102 2079 2060 2038 2011 1986 1969 1943 1891 1852 1818 1803 1781 1771 1771 1744 1719 1700 1679 1647 1625 1594 1551 1503 1448 1412 1385 1382 1378 1368 1334 1296 1274 1253 1218 1187 1154 1122 1096 1070 1059 1056 1051 1054 1070 1106 1145 1172 1192 1209 1226 1218 1185 1159 1121 1090 1116 1161 1207 1229 1230 1217 1201
 2357 2332 2294 2282 2275 2246 2223 2209 2201 2197 2192 2182 2176 2148 2112 2093 2096 2125 2142 2140 2120 2089 2057 2019 1985 1967 1970 1985 1994 2000 2023 2040 2040 2036 2022 2034 2058 2064 2037 2020 2006 1989 1964 1938 1909 1860 1828 1814 1811 1817 1823 1827 1831 1830 1838 1851 1857 1862 1871 1878 1882 1884 1884 1885 1886 1896 1911 1930 1951 1968 1986 2007 2035 2059 2079 2081 2076 2083 2094 2120 2161 2196 2224 2243 2273 2310 2349 2378 2399 2414 2426 2425 2410 2391 2367 2351 2322 2289 2272 2272 2266 2274 2281 2285 2285 2276 2261 2252 2242 2236 2233 2234 2229 2223 2216 2208 2207 2201 2198 2191 2177 2164 2156 2143 2138 2122 2096 2081 2074 2055 2032 2021 2004 1980 1964 1943 1915 1864 1817 1773 1731 1705 1696 1705 1694 1677 1662 1644 1619 1593 1561 1532 1501 1465 1417 1374 1342 1330 1316 1316 1299 1260 1227 1192 1164 1135 1116 1095 1068 1055 1057 1060 1064 1089 1124 1145 1152 1173 1195 1191 1163 1131 1101 1071 1103 1155 1202 1227 1225 1213 1202 1201
 2331 2297 2261 2237 2231 2219 2199 2183 2166 2154 2145 2141 2143 2165 2167 2129 2088 2057 2067 2084 2088 2080 2049 2014 1978 1952 1938 1940 1943 1956 1980 1984 1981 1973 1968 1980 1992 1989 1971 1960 1946 1922 1897 1879 1856 1822 1798 1790 1797 1805 1811 1817 1812 1815 1826 1835 1844 1853 1863 1873 1881 1893 1901 1912 1926 1940 1956 1981 2004 2014 2028 2049 2075 2100 2121 2133 2141 2140 2145 2172 2201 2229 2254 2283 2313 2340 2357 2367 2376 2386 2386 2380 2347 2316 2294 2273 2257 2248 2245 2247 2246 2256 2265 2271 2277 2265 2255 2245 2231 2226 2219 2206 2193 2183 2176 2165 2164 2174 2178 2176 2167 2159 2133 2098 2075 2050 2030 2024 2021 2009 1997 1987 1974 1957 1936 1918 1888 1839 1786 1739 1691 1651 1629 1632 1630 1604 1603 1601 1581 1560 1531 1502 1477 1455 1429 1399 1355 1311 1280 1279 1277 1260 1216 1179 1145 1125 1107 1090 1065 1054 1055 1062 1070 1088 1099 1111 1121 1145 1156 1132 1107 1073 1069 1101 1149 1191 1219 1218 1205 1197 1200 1206
 2313 2274 2235 2212 2198 2186 2163 2141 2123 2103 2095 2101 2120 2144 2171 2175 2162 2120 2049 2009 2027 2043 2035 2008 1971 1935 1914 1905 1910 1915 1922 1925 1926 1919 1913 1917 1922 1920 1908 1889 1881 1859 1829 1811 1800 1781 1772 1780 1787 1797 1805 1799 1795 1803 1816 1834 1855 1872 1890 1905 1918 1928 1939 1958 1977 1998 2012 2025 2038 2052 2063 2079 2098 2128 2149 2166 2178 2184 2201 2217 2234 2258 2283 2305 2319 2326 2327 2332 2334 2337 2331 2300 2278 2250 2227 2221 2216 2212 2210 2212 2220 2231 2236 2243 2239 2232 2227 2220 2211 2202 2186 2166 2150 2140 2135 2125 2125 2145 2149 2146 2133 2120 2099 2062 2034 1994 1974 1969 1976 1971 1968 1960 1943 1929 1912 1894 1866 1831 1791 1754 1697 1636 1583 1555 1542 1528 1539 1553 1545 1520 1501 1471 1452 1432 1411 1391 1362 1324 1284 1249 1241 1230 1204 1165 1133 1113 1099 1077 1064 1053 1050 1058 1072 1080 1085 1091 1101 1106 1096 1079 1073 1089 1122 1143 1166 1194 1198 1194 1199 1204 1210 1223
 2301 2259 2218 2179 2155 2140 2128 2102 2076 2064 2061 2070 2091 2109 2130 2147 2153 2147 2116 2057 1995 1964 1962 1957 1938 1912 1894 1882 1879 1875 1875 1878 1865 1853 1855 1852 1854 1849 1831 1829 1825 1800 1772 1757 1754 1752 1761 1770 1784 1793 1790 1782 1780 1794 1832 1865 1897 1914 1936 1958 1972 1982 2003 2018 2036 2047 2059 2070 2081 2095 2103 2119 2137 2157 2172 2192 2208 2227 2244 2264 2278 2292 2302 2299 2299 2293 2281 2273 2265 2251 2241 2225 2212 2199 2191 2182 2175 2173 2178 2187 2195 2204 2211 2218 2217 2207 2199 2190 2182 2172 2160 2143 2122 2104 2090 2084 2077 2082 2094 2088 2075 2065 2052 2033 2005 1965 1928 1918 1926 1923 1924 1917 1907 1896 1879 1863 1836 1804 1776 1746 1693 1630 1559 1516 1476 1464 1473 1485 1478 1467 1455 1427 1417 1404 1382 1359 1331 1308 1280 1252 1222 1194 1176 1147 1117 1100 1093 1081 1060 1046 1047 1056 1069 1075 1078 1078 1064 1062 1081 1101 1127 1148 1152 1157 1168 1181 1187 1193 1201 1214 1227 1248
 2298 2246 2203 2146 2116 2100 2092 2068 2047 2037 2035 2044 2050 2060 2078 2095 2104 2112 2111 2106 2093 2034 1967 1913 1885 1875 1862 1858 1845 1838 1828 1819 1799 1793 1772 1761 1778 1788 1789 1787 1768 1744 1722 1716 1726 1738 1754 1769 1779 1777 1773 1770 1778 1814 1860 1897 1940 1963 1989 2008 2019 2032 2054 2074 2097 2116 2117 2122 2127 2134 2141 2157 2170 2191 2211 2231 2255 2271 2280 2291 2302 2301 2291 2278 2260 2242 2208 2198 2191 2187 2181 2170 2169 2162 2158 2154 2155 2161 2168 2174 2176 2189 2198 2207 2200 2186 2176 2169 2165 2162 2162 2150 2121 2091 2054 2034 2030 2020 2015 2017 2015 2007 2002 1991 1969 1937 1901 1865 1863 1870 1878 1874 1869 1861 1844 1821 1797 1768 1735 1710 1662 1600 1533 1481 1424 1391 1394 1403 1403 1398 1389 1373 1374 1367 1343 1320 1297 1277 1255 1228 1203 1177 1152 1132 1108 1091 1082 1075 1058 1045 1042 1051 1066 1074 1073 1061 1058 1091 1119 1141 1153 1160 1167 1173 1182 1187 1188 1195 1204 1220 1239 1273
 2295 2226 2184 2117 2083 2071 2062 2044 2020 2012 2008 2012 2009 2009 2024 2036 2049 2046 2049 2057 2060 2053 2027 1999 1939 1885 1859 1844 1822 1790 1765 1741 1740 1730 1708 1712 1725 1750 1744 1720 1696 1689 1694 1707 1721 1737 1753 1760 1761 1761 1760 1763 1788 1829 1882 1934 1981 2005 2022 2028 2047 2070 2100 2127 2144 2155 2162 2167 2167 2173 2182 2195 2214 2231 2249 2275 2286 2283 2287 2293 2287 2266 2246 2223 2196 2168 2155 2149 2142 2134 2130 2132 2136 2137 2132 2130 2140 2146 2150 2155 2160 2171 2181 2184 2175 2168 2165 2163 2169 2170 2175 2160 2132 2095 2047 2006 1976 1953 1945 1944 1943 1946 1948 1941 1923 1899 1857 1813 1805 1824 1837 1835 1828 1820 1803 1779 1761 1736 1702 1663 1620 1571 1512 1465 1416 1362 1326 1324 1330 1323 1316 1308 1312 1315 1302 1287 1267 1240 1217 1195 1177 1156 1137 1119 1100 1091 1084 1073 1060 1047 1042 1052 1065 1068 1053 1058 1088 1108 1126 1145 1158 1169 1182 1188 1194 1194 1190 1195 1215 1244 1275 1316
 2283 2213 2157 2097 2064 2045 2040 2027 1999 1986 1982 1979 1974 1973 1981 1976 1982 1989 2002 2011 2013 2015 2005 1991 1960 1919 1896 1853 1810 1759 1721 1691 1688 1680 1656 1667 1691 1695 1674 1656 1660 1673 1690 1707 1719 1729 1737 1742 1751 1762 1772 1787 1816 1855 1916 1960 2000 2026 2037 2053 2081 2112 2137 2153 2167 2178 2189 2198 2206 2218 2231 2240 2252 2270 2283 2285 2278 2270 2270 2270 2248 2227 2212 2181 2151 2134 2122 2110 2100 2093 2095 2099 2102 2103 2100 2105 2110 2117 2127 2136 2144 2152 2159 2164 2162 2164 2170 2186 2196 2189 2180 2160 2138 2104 2062 2016 1972 1931 1898 1882 1872 1882 1882 1875 1865 1842 1804 1760 1755 1781 1794 1797 1789 1772 1757 1742 1726 1698 1669 1633 1597 1555 1517 1479 1433 1373 1319 1283 1266 1258 1248 1242 1246 1260 1264 1248 1227 1205 1184 1167 1153 1137 1125 1111 1099 1090 1079 1070 1058 1047 1042 1050 1056 1046 1052 1079 1098 1113 1130 1149 1165 1178 1196 1202 1200 1200 1201 1212 1246 1286 1323 1356
 2281 2229 2149 2104 2065 2036 2019 2009 1982 1970 1963 1959 1956 1955 1960 1949 1946 1950 1959 1964 1965 1969 1968 1922 1895 1864 1839 1813 1783 1750 1704 1672 1653 1629 1623 1640 1641 1629 1621 1630 1644 1658 1674 1693 1709 1724 1746 1767 1786 1796 1806 1823 1861 1899 1939 1980 2012 2035 2057 2090 2120 2144 2168 2186 2198 2206 2224 2242 2256 2263 2269 2282 2287 2291 2284 2275 2262 2249 2246 2237 2218 2200 2182 2153 2126 2102 2084 2071 2065 2061 2067 2066 2065 2069 2079 2092 2095 2102 2117 2125 2132 2139 2150 2159 2170 2189 2205 2201 2193 2177 2162 2145 2122 2081 2049 2020 1998 1958 1910 1858 1819 1811 1809 1805 1797 1774 1754 1732 1708 1723 1741 1753 1747 1734 1722 1705 1679 1655 1630 1604 1579 1546 1502 1460 1426 1387 1348 1303 1264 1234 1210 1197 1198 1209 1224 1210 1189 1171 1158 1143 1132 1123 1115 1097 1084 1083 1068 1061 1051 1039 1036 1037 1035 1053 1083 1100 1112 1125 1136 1149 1162 1177 1190 1197 1200 1206 1220 1251 1293 1328 1359 1388
 2314 2258 2189 2104 2056 2022 1996 1991 1973 1956 1941 1937 1934 1934 1937 1929 1917 1918 1919 1913 1910 1920 1875 1838 1815 1804 1779 1757 1736 1723 1708 1653 1589 1588 1596 1607 1601 1582 1596 1616 1653 1691 1722 1740 1758 1780 1802 1819 1835 1847 1866 1886 1912 1939 1971 2007 2038 2066 2100 2131 2165 2191 2210 2230 2240 2248 2260 2277 2291 2304 2306 2303 2291 2279 2269 2259 2238 2224 2211 2196 2179 2155 2138 2120 2095 2068 2052 2054 2047 2040 2044 2042 2045 2054 2066 2073 2082 2095 2109 2121 2134 2145 2161 2176 2196 2206 2203 2190 2175 2159 2141 2113 2085 2049 2028 2007 1984 1948 1906 1853 1802 1764 1747 1730 1722 1710 1704 1680 1660 1661 1682 1696 1703 1699 1683 1659 1637 1617 1590 1563 1541 1518 1470 1428 1391 1357 1335 1312 1286 1251 1222 1197 1170 1167 1180 1176 1163 1147 1135 1126 1118 1109 1092 1078 1070 1064 1053 1046 1038 1030 1021 1024 1047 1074 1094 1109 1118 1130 1142 1151 1163 1174 1185 1197 1210 1232 1267 1303 1337 1365 1397 1429
